0.969033718109131 -0.685742378234863 2.8580687046051
0.967902064323425 -0.67210054397583 2.86062216758728
0.550409376621246 0.196998432278633 2.98181819915771
0.682483434677124 -0.412306666374207 2.80420517921448
0.44850817322731 0.36249515414238 3.00380659103394
1.20973026752472 -0.458649396896362 2.76306009292603
1.09145629405975 -0.208196878433228 2.80865287780762
0.389857590198517 0.0576036274433136 2.99044227600098
0.135299146175385 -0.754556775093079 2.71716785430908
0.769206821918488 -0.0316574275493622 2.91316819190979
0.612328052520752 -0.4445641040802 2.80668354034424
0.636216759681702 -0.735273003578186 2.68061184883118
0.978354811668396 -0.479963362216949 2.84975028038025
0.21878182888031 0.208301216363907 3.08814239501953
1.16346144676209 -0.82929527759552 2.37112998962402
0.885020196437836 -0.792298913002014 2.82111501693726
-0.424394190311432 -0.592261075973511 3.26406574249268
0.445489019155502 -0.806033611297607 2.02312016487122
0.575717449188232 -0.497896492481232 2.80011129379272
0.557232260704041 0.423096477985382 2.97198247909546
0.538612484931946 -0.63906729221344 2.7825140953064
0.774112939834595 0.193022683262825 2.91127967834473
1.06679928302765 -0.835161209106445 2.79844379425049
0.0652881264686584 0.445064127445221 3.12387800216675
0.44062528014183 0.202958092093468 3.01355266571045
0.0481551289558411 0.230545341968536 3.09537982940674
0.265040159225464 -0.0551302134990692 3.05008864402771
0.325607657432556 0.202330440282822 3.06446170806885
0.306900024414063 -0.637042045593262 3.04612755775452
1.0898768901825 -0.39726996421814 2.82079362869263
1.09293627738953 0.167194813489914 2.82266473770142
1.01528859138489 0.416544437408447 2.83109951019287
0.583135545253754 -0.458510160446167 2.81014680862427
0.379372119903564 -0.228298783302307 2.97916507720947
0.661879062652588 0.19620917737484 2.94518423080444
0.524679124355316 -0.57873523235321 2.82368850708008
-0.360715329647064 -0.756253600120544 2.84588050842285
0.89250373840332 0.412058800458908 2.86446952819824
0.58052921295166 -0.812311410903931 2.66381978988647
0.645677328109741 -0.461493194103241 2.95359373092651
1.09916257858276 0.411870062351227 2.80361652374268
1.12540900707245 -0.824339509010315 2.19643974304199
0.30110639333725 0.482893764972687 3.08103656768799
0.303712487220764 -0.31406182050705 3.06751012802124
1.20720815658569 -0.81017804145813 2.3829231262207
1.29899263381958 -0.483482658863068 2.76101779937744
0.612665295600891 -0.464731276035309 2.78977227210999
0.584214925765991 0.0524042546749115 3.00576424598694
0.758553743362427 0.475389748811722 2.90010595321655
0.763502061367035 0.388227641582489 2.90816617012024
1.23371148109436 -0.839511513710022 2.36085653305054
1.21874952316284 -0.817631244659424 2.73249578475952
1.19626998901367 -0.821300983428955 2.74311685562134
0.738531947135925 -0.739620685577393 2.85307669639587
1.21418714523315 -0.811311602592468 2.55834770202637
0.703727722167969 -0.794326543807983 2.6794056892395
0.618222117424011 0.493363112211227 2.94404220581055
0.484014272689819 -0.797195434570313 2.7363224029541
0.154173731803894 0.0126740038394928 3.05236220359802
0.610120952129364 -0.442169487476349 2.83931565284729
0.785525143146515 -0.786595821380615 2.78754329681396
0.217706322669983 0.470300674438477 3.05733585357666
0.333799242973328 0.0988858938217163 3.0375509262085
0.811292171478271 -0.82732617855072 2.51082181930542
0.162387311458588 -0.76777172088623 2.77767014503479
-0.00422996282577515 -0.76017427444458 2.70070767402649
-0.187362134456635 -0.750683903694153 2.82273292541504
0.606166362762451 -0.810940623283386 2.52730488777161
0.58660364151001 -0.741005420684814 2.70316934585571
0.472301632165909 -0.737522959709167 2.78533363342285
1.13534188270569 -0.825629353523254 2.41600728034973
1.05205583572388 -0.838601350784302 2.39945650100708
0.734903216362 -0.812542080879211 2.48523807525635
0.365350306034088 -0.807371377944946 2.09908723831177
0.721836626529694 0.514658272266388 2.91257238388062
1.05736231803894 -0.337856352329254 2.81590509414673
1.11268496513367 0.418903470039368 2.79963636398315
1.11284589767456 -0.262300789356232 2.81997680664063
1.14762508869171 -0.798362493515015 2.72883272171021
0.459724009037018 -0.525758564472198 2.90044689178467
1.40558815002441 -0.793059587478638 2.71887612342834
0.692399203777313 0.434454739093781 2.91838574409485
0.659515023231506 0.417593032121658 2.89644622802734
0.490917205810547 0.436902225017548 2.95734310150146
0.666465044021606 0.475875556468964 2.92610836029053
0.676110565662384 0.510810732841492 2.92244911193848
0.0274960994720459 0.438142746686935 3.08785796165466
0.0562229156494141 0.247904792428017 3.06994581222534
0.232555270195007 0.367904961109161 3.07261681556702
0.570620894432068 -0.470191121101379 2.86652207374573
0.749139368534088 -0.795257449150085 2.86149168014526
0.389162182807922 -0.766619920730591 3.06224298477173
0.652383208274841 -0.239794790744781 2.94407248497009
0.420160114765167 0.473073780536652 2.97541618347168
-0.401438415050507 -0.25910097360611 3.28547644615173
0.168906450271606 -0.210101425647736 3.06702995300293
0.717146039009094 -0.708244323730469 2.85299587249756
0.428292870521545 -0.813907980918884 2.15009355545044
0.376819968223572 -0.326647341251373 3.01788806915283
0.19704669713974 -0.417750537395477 3.20499539375305
-0.0487905740737915 -0.767550826072693 2.72568249702454
0.859622478485107 -0.653997778892517 2.88379526138306
0.516226887702942 -0.807085037231445 2.08915281295776
0.994486272335052 -0.826335191726685 2.46267890930176
0.476989030838013 0.0571680665016174 3.01881074905396
0.738818466663361 -0.794841289520264 2.72821092605591
0.549094200134277 -0.781046271324158 2.45906591415405
0.688072443008423 0.416338235139847 2.9321711063385
0.757897257804871 0.534243285655975 2.9037070274353
1.10489618778229 0.158621191978455 2.81167602539063
0.647413611412048 -0.542025446891785 2.92549562454224
1.24604749679565 -0.805301308631897 2.73753380775452
1.08039128780365 -0.68383526802063 2.8205394744873
0.758475542068481 -0.805131554603577 2.8481605052948
1.17596518993378 -0.79272198677063 2.75274467468262
0.686459541320801 -0.695674896240234 2.81180047988892
0.629948437213898 0.47984567284584 2.94327068328857
0.0721604824066162 0.45427593588829 3.13651752471924
-0.767521321773529 -0.626612305641174 3.37122941017151
0.674633085727692 0.527429103851318 2.92379188537598
0.0271235704421997 0.317939132452011 3.10490322113037
-0.654098451137543 -0.673513531684875 3.25145101547241
0.634712934494019 0.540317177772522 2.94242978096008
0.014058530330658 -0.587684988975525 3.10413408279419
0.858791947364807 -0.672187566757202 2.88792657852173
0.0319131016731262 -0.546067237854004 3.07537460327148
-0.147292912006378 -0.725517988204956 3.16736793518066
-0.547869503498077 -0.727431297302246 3.26175785064697
0.171801269054413 -0.779130816459656 2.04536128044128
0.457183629274368 0.34358823299408 2.96755337715149
0.496109336614609 -0.796325206756592 2.18296122550964
0.701346457004547 -0.6020827293396 2.88918209075928
1.24162626266479 -0.824439764022827 2.54900693893433
-0.504873335361481 -0.346487462520599 3.2847318649292
0.968277513980865 -0.24064975976944 2.8566460609436
0.478630483150482 -0.514778792858124 2.86898064613342
0.432701230049133 -0.801633834838867 2.07452440261841
1.28004574775696 -0.814278364181519 2.66219139099121
0.524279475212097 -0.806033968925476 2.26462936401367
0.494366735219955 -0.796203851699829 2.15878105163574
0.47487884759903 -0.815464496612549 2.23018431663513
-0.0629628300666809 0.440575003623962 3.13050985336304
0.0875878930091858 0.377340734004974 3.10113143920898
0.455617487430573 -0.80592668056488 2.04689073562622
0.126452028751373 0.213585719466209 3.09604787826538
0.488660752773285 -0.79824697971344 2.30897617340088
0.748447239398956 -0.671484470367432 2.92030382156372
1.15915870666504 -0.846128106117249 2.25016760826111
0.363120675086975 -0.793201565742493 2.01128602027893
0.256231963634491 0.0493331849575043 3.03333687782288
0.361265599727631 0.0508777499198914 2.98600959777832
1.25672674179077 -0.817458748817444 2.23625111579895
0.581981301307678 -0.823325157165527 2.06221556663513
0.380214333534241 -0.802522301673889 2.04456448554993
-0.458110868930817 -0.414722442626953 3.26777601242065
0.691009342670441 -0.827992677688599 2.11442518234253
0.668161690235138 -0.811663866043091 2.08931398391724
0.246552765369415 -0.784873366355896 3.02580118179321
0.949435591697693 -0.648331642150879 2.37128210067749
0.422697365283966 -0.781237721443176 2.33737230300903
0.088655412197113 -0.636266589164734 3.11977934837341
-0.114475667476654 -0.585706949234009 3.16326332092285
-0.0168877840042114 0.323854982852936 3.1510488986969
0.009163498878479 0.394241094589233 3.14470648765564
-0.00355887413024902 0.179075062274933 3.15735721588135
0.627764821052551 -0.455455422401428 2.81936383247375
0.109661459922791 0.210502162575722 3.12415623664856
-0.364719450473785 -0.740568280220032 3.20877838134766
-0.315533697605133 -0.759254097938538 3.20754313468933
0.45986345410347 -0.773152470588684 2.75818777084351
0.614927649497986 -0.803523182868958 2.56013250350952
0.67543751001358 0.405378371477127 2.92830419540405
0.0185595750808716 0.415139496326447 3.13273882865906
1.05679035186768 -0.35377037525177 2.81155395507813
0.984079837799072 -0.263628244400024 2.85131692886353
0.753504753112793 0.400199174880981 2.90809488296509
0.69740617275238 -0.478394865989685 2.80905961990356
0.784058928489685 0.416110247373581 2.90507364273071
1.19087553024292 -0.692022562026978 2.78939342498779
1.07971048355103 -0.66722047328949 2.81821751594543
1.24848437309265 -0.798267364501953 2.7094874382019
1.30343270301819 -0.695339918136597 2.75432467460632
0.492051601409912 0.430010974407196 2.97787284851074
0.41134649515152 -0.0237695276737213 3.01211452484131
0.995888233184814 0.18688477575779 2.84280300140381
0.65112715959549 -0.802370071411133 2.68091988563538
0.11531263589859 0.367959529161453 3.12011909484863
0.198306798934937 -0.615930438041687 3.08063721656799
0.224522531032562 0.364043325185776 3.08301401138306
0.536058068275452 -0.682547569274902 2.77937936782837
0.69834303855896 -0.588221907615662 2.82208347320557
1.09918463230133 -0.0432403087615967 2.81103658676147
1.20633411407471 -0.271477341651917 2.78139877319336
0.646835505962372 -0.81470799446106 2.70254874229431
1.19017708301544 -0.682339668273926 2.7920515537262
1.16467022895813 -0.835226893424988 2.39996123313904
0.412881553173065 0.0645000636577606 3.00439882278442
0.153367877006531 -0.292345345020294 3.11826276779175
0.529005527496338 0.388709217309952 2.98224210739136
0.989959836006165 0.39678418636322 2.84505558013916
0.665872156620026 0.376249551773071 2.94171094894409
0.123783469200134 0.372685730457306 3.10633015632629
0.444245874881744 0.358897030353546 3.00980186462402
0.626002371311188 0.406290054321289 2.95254826545715
1.16795265674591 -0.827683687210083 2.3717679977417
1.37527596950531 -0.832369565963745 2.68871426582336
1.40644788742065 -0.811065793037415 2.66150975227356
0.701431155204773 0.402476966381073 2.93189573287964
0.719543814659119 0.453825950622559 2.9151132106781
0.207228899002075 -0.334178149700165 3.08737087249756
0.664649605751038 0.455897659063339 2.93235731124878
0.337958991527557 0.365719199180603 3.04265117645264
0.904290854930878 0.40043106675148 2.86850786209106
0.791362166404724 -0.797481298446655 2.40802073478699
0.396710932254791 -0.275633871555328 3.00031471252441
0.161586701869965 0.0715799331665039 3.10170316696167
1.21143174171448 -0.0486458241939545 2.77708625793457
0.150380492210388 -0.287897884845734 3.09465742111206
1.16443932056427 -0.814028143882751 2.31881141662598
0.892958402633667 -0.810750007629395 2.47558355331421
0.332923233509064 0.361774891614914 3.05068683624268
0.667217433452606 -0.448646128177643 2.78833866119385
-0.00572896003723145 0.269838750362396 3.13379812240601
0.649651885032654 -0.802142739295959 2.75653529167175
1.25005686283112 -0.825620174407959 2.36686277389526
0.745648264884949 -0.666272044181824 2.93397855758667
0.311158657073975 -0.611780762672424 3.03664541244507
0.332455456256866 0.126845002174377 3.0380859375
-0.0328890085220337 -0.786589741706848 2.24629950523376
0.404142618179321 -0.293074727058411 3.00582361221313
0.158264815807343 0.0422413051128387 3.12217903137207
0.545945286750793 -0.0229765474796295 2.98353576660156
0.531362056732178 -0.714626669883728 2.77340030670166
0.545833230018616 -0.741081237792969 2.70838189125061
0.29781448841095 -0.772754669189453 3.00200223922729
1.12175130844116 0.389846652746201 2.7923059463501
-0.328481376171112 -0.733673930168152 2.85705375671387
1.13683700561523 -0.814063549041748 2.78265857696533
0.283260345458984 0.000471591949462891 3.037184715271
1.09993374347687 0.392866969108582 2.81191396713257
0.209128022193909 -0.625141739845276 3.0692286491394
0.432096838951111 -0.766019344329834 2.90554356575012