0.96426659822464 -0.692097008228302 2.86223697662354
0.963111698627472 -0.677876055240631 2.86439990997314
0.542212247848511 0.192431077361107 2.98626494407654
0.291012465953827 0.480095773935318 3.08052229881287
0.293034136295319 -0.31494927406311 3.06244301795959
0.750672578811646 0.472850114107132 2.90531635284424
1.23314428329468 -0.843995630741119 2.36564755439758
1.21552932262421 -0.820603907108307 2.73646187782288
1.19313430786133 -0.824106872081757 2.74608302116394
0.734346508979797 -0.746814429759979 2.8579568862915
1.21278500556946 -0.815939724445343 2.56361484527588
0.69997775554657 -0.797999083995819 2.68042206764221
0.609589457511902 0.490200400352478 2.94829845428467
0.209908723831177 0.203026756644249 3.09018015861511
0.145206153392792 0.00735795497894287 3.05210781097412
0.325261175632477 0.0936282575130463 3.03665256500244
-0.191756069660187 -0.755582273006439 2.81591606140137
0.604119658470154 -0.815120398998261 2.52796316146851
1.13541948795319 -0.827925860881805 2.41985893249512
1.0512273311615 -0.837708055973053 2.40093350410461
0.365788877010345 -0.81021922826767 2.09800386428833
1.05326056480408 -0.343000292778015 2.82242679595947
1.10721898078918 -0.265789806842804 2.82527017593384
0.684181094169617 0.432625263929367 2.92445421218872
0.606909036636353 -0.470964014530182 2.79298281669617
0.650977551937103 0.415293753147125 2.90330410003662
0.481678932905197 0.434397518634796 2.96079730987549
0.657898128032684 0.473535925149918 2.93078851699829
0.666933655738831 0.508975744247437 2.92713785171509
0.0480892658233643 0.244166031479836 3.06691527366638
0.223362803459167 0.364705890417099 3.0713996887207
0.562597155570984 -0.478244483470917 2.87394666671753
0.385100543498993 -0.762757360935211 3.05250930786133
0.410320162773132 0.470735877752304 2.97750282287598
-0.408677160739899 -0.266529560089111 3.27541780471802
0.478870749473572 -0.803342998027802 2.73747730255127
0.710365653038025 -0.713582694530487 2.85512542724609
0.11793714761734 -0.367834150791168 3.15287256240845
0.428572058677673 -0.813627183437347 2.14602541923523
0.191965699195862 -0.414816498756409 3.18924641609192
0.517348170280457 -0.804879248142242 2.08524656295776
0.546334564685822 -0.783723533153534 2.45679235458374
0.679562330245972 0.413015156984329 2.93769264221191
0.749431908130646 0.531750500202179 2.91372656822205
0.645157098770142 -0.537673532962799 2.91537857055664
1.24332928657532 -0.808838665485382 2.74230742454529
0.581000328063965 -0.745943129062653 2.70384120941162
0.620733022689819 0.47719395160675 2.94958925247192
0.0655792951583862 0.449767678976059 3.12890625
-0.746445596218109 -0.616079151630402 3.33402991294861
0.665631532669067 0.524858355522156 2.93099641799927
0.0234611034393311 0.313251852989197 3.09510827064514
-0.645173132419586 -0.668054401874542 3.22661018371582
0.626742959022522 0.537124991416931 2.94450736045837
0.0114748477935791 -0.588322341442108 3.09379959106445
-0.529381096363068 -0.713176548480988 3.22650218009949
0.182995617389679 -0.764000713825226 2.03853631019592
0.458296895027161 -0.522240936756134 2.89364004135132
1.23938524723053 -0.824454724788666 2.5517680644989
0.437727302312851 -0.793059766292572 2.06956672668457
1.27610993385315 -0.812057912349701 2.66531944274902
0.525224983692169 -0.803225457668304 2.26101493835449
-0.068931519985199 0.435650378465652 3.12258768081665
0.462688237428665 -0.791427314281464 2.04211616516113
0.493061721324921 -0.788473904132843 2.30173277854919
1.15925812721252 -0.850312292575836 2.25439167022705
0.373923301696777 -0.777452170848846 2.00649261474609
0.586817979812622 -0.811607897281647 2.05845594406128
0.742005825042725 -0.801842272281647 2.86572551727295
0.691460072994232 -0.824246227741241 2.11220598220825
0.672536671161652 -0.797712624073029 2.08408498764038
0.385507464408875 -0.704832375049591 1.97474658489227
0.854129731655121 -0.659431517124176 2.88753747940063
0.753458738327026 -0.810390651226044 2.8533878326416
0.853209137916565 -0.677838861942291 2.89195775985718
1.07605254650116 -0.689386308193207 2.82565355300903
0.473791778087616 -0.520984172821045 2.87274932861328
0.742692828178406 -0.67797726392746 2.92418074607849
0.238612174987793 -0.790675342082977 3.02544212341309
0.0795782804489136 -0.643566310405731 3.11851787567139
-0.0266766548156738 0.317427068948746 3.15143084526062
-0.0143736600875854 0.173432528972626 3.1566960811615
0.0997776985168457 0.204535827040672 3.12483167648315
-0.373120367527008 -0.749079644680023 3.20334482192993
-0.324428141117096 -0.767483413219452 3.20257067680359
0.455184549093246 -0.780060470104218 2.75909233093262
0.622426986694336 -0.461932837963104 2.82247400283813
0.611477673053741 -0.810295164585114 2.56038546562195
0.66746461391449 0.402441024780273 2.93279600143433
0.00793355703353882 0.410900503396988 3.13233876228333
1.05195915699005 -0.359103202819824 2.81807398796082
0.978167533874512 -0.267994523048401 2.85802316665649
0.745813965797424 0.397001385688782 2.91330242156982
0.77629429101944 0.41327828168869 2.91025948524475
1.18693852424622 -0.696694433689117 2.79488134384155
1.07518672943115 -0.67191869020462 2.82276129722595
1.24613189697266 -0.802679717540741 2.71492433547974
0.693127155303955 -0.484966576099396 2.81203293800354
1.3002804517746 -0.699802458286285 2.76044988632202
0.483013451099396 0.426498532295227 2.98115801811218
0.402565896511078 -0.0279937386512756 3.01483511924744
0.989726901054382 0.183773845434189 2.84921503067017
0.646697759628296 -0.808550298213959 2.68198418617249
0.105338215827942 0.362516820430756 3.12072706222534
0.213797807693481 0.359154760837555 3.08384442329407
0.53046315908432 -0.689106166362762 2.78155255317688
0.693175673484802 -0.593434035778046 2.82693910598755
1.09400701522827 -0.0464392900466919 2.81879472732544
0.190978825092316 -0.624020159244537 3.08041763305664
1.20240259170532 -0.275523662567139 2.78891706466675
1.18657553195953 -0.688484370708466 2.79818439483643
1.16427576541901 -0.84056144952774 2.40336298942566
0.404172837734222 0.0597764849662781 3.00688886642456
0.14349627494812 -0.296840369701386 3.1176609992981
0.983547806739807 0.394042432308197 2.85119462013245
0.657102346420288 0.373635828495026 2.94660663604736
0.112550675868988 0.369022190570831 3.1060037612915
0.435458183288574 0.354402810335159 3.01319217681885
0.616826295852661 0.404188871383667 2.95707011222839
0.520822882652283 0.385678291320801 2.9859938621521
1.16766965389252 -0.831968128681183 2.37570214271545
0.693460047245026 0.400543957948685 2.93684434890747
0.710890114307404 0.451930701732636 2.92047905921936
0.655818402767181 0.45441198348999 2.93701219558716
0.51430356502533 0.394343823194504 2.96982359886169
0.327817320823669 0.362432181835175 3.04425597190857
0.793833315372467 -0.7960564494133 2.40388989448547
0.387634038925171 -0.280693292617798 3.00215911865234
0.150380790233612 0.0668634474277496 3.10101366043091
0.140906631946564 -0.293482661247253 3.09354782104492
0.199197173118591 -0.34105783700943 3.08795022964478
1.16323244571686 -0.817223608493805 2.32187175750732
0.662131905555725 -0.453195512294769 2.79184818267822
1.25048577785492 -0.831285655498505 2.37116026878357
0.740884959697723 -0.672230303287506 2.93529033660889
0.305959820747375 -0.61989563703537 3.03629398345947
0.319396615028381 0.11979067325592 3.04063606262207
-0.0343782305717468 -0.790478527545929 2.24025559425354
0.396213531494141 -0.297560155391693 3.00630760192871
0.14804869890213 0.0374644994735718 3.12179565429688
0.525971293449402 -0.71965891122818 2.7712836265564
0.323482930660248 0.357513785362244 3.05268812179565
0.541064977645874 -0.748063743114471 2.70858907699585
0.289636850357056 -0.778199732303619 2.99975156784058
1.13306570053101 -0.820545494556427 2.78870868682861
0.200799822807312 -0.629598081111908 3.06591987609863
0.438794612884521 0.360084593296051 3.00704026222229
1.20700752735138 -0.463536083698273 2.7725932598114
0.379977405071259 0.0529053211212158 2.99353313446045
0.60652232170105 -0.449441432952881 2.8083963394165
0.631412982940674 -0.739836156368256 2.68038105964661
0.972667813301086 -0.484354138374329 2.85478401184082
0.537237703800201 -0.0273675918579102 2.98783230781555
1.16242444515228 -0.831435859203339 2.37354254722595
0.879446148872375 -0.795930683612823 2.82306504249573
0.570682525634766 -0.501891314983368 2.79993200302124
0.533005475997925 -0.643698990345001 2.7826132774353
0.766250729560852 0.189969137310982 2.91679096221924
0.0554161071777344 0.441876530647278 3.12171077728271
0.0377652645111084 0.227012157440186 3.09380006790161
0.577147364616394 -0.463573932647705 2.81067848205566
0.65367466211319 0.193526953458786 2.94988822937012
0.576394438743591 -0.81831568479538 2.66507911682129