1.51987850666046 -0.145235821604729 1.29137241840363
1.57476878166199 -0.134085804224014 1.27464413642883
1.48661756515503 -0.161501079797745 1.1790634393692
1.44606328010559 -0.259690463542938 1.23893249034882
1.49149298667908 -0.311896532773972 1.36177098751068
1.38039457798004 -0.290531039237976 1.0346372127533
1.41140377521515 -0.20906175673008 1.16809868812561
1.5616512298584 -0.290474444627762 0.915130794048309
1.47967386245728 -0.167279481887817 1.18660879135132
1.43637609481812 -0.238046169281006 1.05001974105835
1.39737296104431 -0.249756067991257 1.0314804315567
1.50809764862061 -0.134372383356094 1.20889008045197
1.5052398443222 -0.139367669820786 1.2083488702774
1.48061752319336 -0.171078652143478 1.18137693405151
1.44327688217163 -0.241509571671486 1.05946314334869
1.38454067707062 -0.273062467575073 1.02910971641541
1.65088546276093 -0.0837511867284775 1.25081014633179
1.56694102287292 -0.132555097341537 1.26805508136749
1.38433718681335 -0.318053334951401 1.01992106437683
1.47484636306763 -0.254452109336853 1.2684029340744
1.47376322746277 -0.283683180809021 1.2650454044342
1.41565477848053 -0.166676670312881 1.29998064041138
1.52253699302673 -0.136925101280212 1.23087728023529
1.41692173480988 -0.205320775508881 1.15415227413177
1.47472858428955 -0.151019349694252 1.30304253101349
1.419557929039 -0.160431861877441 1.22539579868317
1.63948822021484 -0.0719045549631119 1.23163902759552
1.48273253440857 -0.177942469716072 1.20223343372345
1.4583934545517 -0.192572295665741 1.14349961280823
1.41806352138519 -0.172497361898422 1.21477794647217
1.41262078285217 -0.175217285752296 1.2980740070343
1.46551942825317 -0.284873962402344 1.25971782207489
1.70153617858887 -0.150577455759048 0.935833811759949
1.49282693862915 -0.166070461273193 1.32965588569641
1.49396729469299 -0.159790128469467 1.21977543830872
1.50164616107941 -0.133806362748146 1.19567012786865
1.42354309558868 -0.294216424226761 1.04176664352417
1.48297929763794 -0.165937483310699 1.20242583751678
1.44459772109985 -0.145175337791443 1.2604728937149
1.48406839370728 -0.172036334872246 1.20331025123596
1.47844445705414 -0.155449464917183 1.16769909858704
1.64991617202759 -0.0738255530595779 1.25156426429749
1.63788652420044 -0.0803997367620468 1.16757929325104
1.49472284317017 -0.154043897986412 1.18520069122314
1.51359748840332 -0.13489830493927 1.22199082374573
1.70203125476837 -0.117348693311214 0.915512800216675
1.50936830043793 -0.129320979118347 1.19690907001495
1.4328156709671 -0.188048288226128 1.13404583930969
1.42886400222778 -0.195968821644783 1.22545945644379
1.41723847389221 -0.170245870947838 1.29911363124847
1.50341808795929 -0.146109879016876 1.19074320793152
1.50057232379913 -0.144265472888947 1.20253205299377
1.48195445537567 -0.158191710710526 1.20086705684662
1.43534445762634 -0.150194212794304 1.24337005615234
1.43374824523926 -0.186734974384308 1.12953341007233
1.64664471149445 -0.076385036110878 1.22721028327942
1.45013427734375 -0.198863983154297 1.24514186382294
1.43690431118011 -0.184832632541656 1.12223076820374
1.5130900144577 -0.159522533416748 1.24185574054718
1.48490583896637 -0.155552268028259 1.17179608345032
1.62812733650208 -0.0834739357233047 1.14857912063599
1.69964623451233 -0.0911891311407089 1.34483897686005
1.49885988235474 -0.158360034227371 1.19369947910309
1.63809549808502 -0.0685096830129623 1.14275360107422
1.44277942180634 -0.181324601173401 1.11926674842834
1.54540801048279 -0.14072097837925 1.12788486480713
1.48591887950897 -0.164247870445251 1.18538820743561
1.47572422027588 -0.17367023229599 1.19643235206604
1.41751551628113 -0.195353671908379 1.16450965404511
1.52223217487335 -0.144821882247925 1.23777031898499
1.4647411108017 -0.169849917292595 1.30392837524414
1.50499248504639 -0.148668989539146 1.20881140232086
1.43559217453003 -0.178992852568626 1.14187383651733
1.43266439437866 -0.15659861266613 1.25046169757843
1.49886727333069 -0.157272860407829 1.12640273571014
1.54477059841156 -0.12282345443964 1.12976181507111
1.5529568195343 -0.122153356671333 1.13308048248291
1.44652688503265 -0.177935555577278 1.13831794261932
1.49070012569427 -0.161414042115211 1.20535254478455
1.50377416610718 -0.151526480913162 1.14454281330109
1.41788733005524 -0.164906471967697 1.21627569198608
1.43017041683197 -0.194372564554214 1.13119530677795
1.41941630840302 -0.166137412190437 1.2115124464035
1.52623903751373 -0.151904299855232 1.31228768825531
1.49147772789001 -0.315529555082321 1.3434944152832
1.43775868415833 -0.151910349726677 1.24528408050537
1.4210216999054 -0.16203585267067 1.22010660171509
1.47682118415833 -0.170768931508064 1.19205093383789
1.41346192359924 -0.196789860725403 1.16599190235138
1.4887912273407 -0.314556479454041 1.35327708721161
1.5264927148819 -0.156772211194038 1.14637863636017
1.51657843589783 -0.152891784906387 1.30902981758118
1.48382806777954 -0.167636796832085 1.19067394733429
1.56073403358459 -0.138425976037979 1.26837563514709
1.52846360206604 -0.140072137117386 1.23694658279419
1.51377248764038 -0.128836244344711 1.21613574028015
1.48314094543457 -0.156678184866905 1.31811082363129
1.43605196475983 -0.149337261915207 1.25654900074005
1.41308093070984 -0.165719658136368 1.29294049739838
1.4171541929245 -0.162977114319801 1.29823911190033
1.48366105556488 -0.153295427560806 1.31462025642395
1.48624038696289 -0.161285728216171 1.17215406894684
1.49886894226074 -0.13494873046875 1.11910760402679
1.48756504058838 -0.164194911718369 1.22058498859406
1.4952712059021 -0.140924513339996 1.11644768714905
1.68085479736328 -0.198541134595871 0.93960040807724
1.43535721302032 -0.242551505565643 1.0614013671875
1.52178049087524 -0.145916163921356 1.23959636688232
1.46881449222565 -0.165874898433685 1.28940916061401
1.4691960811615 -0.166525334119797 1.32156825065613
1.43488562107086 -0.149997919797897 1.25053203105927
1.46629285812378 -0.158358454704285 1.29598677158356
1.50437462329865 -0.144179791212082 1.18456983566284
1.47229516506195 -0.171033203601837 1.31667590141296
1.46768629550934 -0.161770761013031 1.30868661403656
1.64383149147034 -0.0782221108675003 1.23492002487183
1.43440186977386 -0.156284689903259 1.24575328826904
1.42837154865265 -0.250287532806396 1.05786800384521
1.54499936103821 -0.126947849988937 1.13222575187683
1.50678038597107 -0.129406183958054 1.1174544095993
1.49252915382385 -0.223872244358063 0.990033507347107
1.51942849159241 -0.15688781440258 1.14515042304993
1.50778388977051 -0.154626101255417 1.18827939033508
1.42195510864258 -0.159253358840942 1.21261978149414
1.40570616722107 -0.25646847486496 1.02870631217957
1.42940008640289 -0.258889347314835 1.04250311851501
1.41975724697113 -0.246814608573914 1.04595267772675
1.42659616470337 -0.236014515161514 1.05217599868774
1.41942048072815 -0.251302719116211 1.02961051464081
1.61395049095154 -0.195688188076019 1.3439314365387
1.55610156059265 -0.170806929469109 1.25954627990723
1.44297504425049 -0.166027620434761 1.23879075050354
1.42130267620087 -0.201171174645424 1.16774320602417
1.47990810871124 -0.174644649028778 1.18780767917633
1.41323363780975 -0.208066821098328 1.17544484138489
1.47581398487091 -0.15989850461483 1.16783118247986
1.77284109592438 -0.102043762803078 0.943201541900635
1.47570168972015 -0.163410782814026 1.32166397571564
1.48523545265198 -0.162660896778107 1.18909239768982
1.45536863803864 -0.283024609088898 1.24879467487335
1.44670844078064 -0.284508943557739 1.23397433757782
1.56149792671204 -0.235724270343781 0.982236564159393
1.76300740242004 -0.106322012841702 1.0287321805954
1.78982865810394 -0.0995100364089012 1.00296914577484
1.37816858291626 -0.275611132383347 1.03141021728516
1.55508410930634 -0.140334606170654 1.26424956321716
1.42748248577118 -0.20058311522007 1.14206862449646
1.49376153945923 -0.216268062591553 0.988666772842407
1.44545340538025 -0.177853494882584 1.12628209590912
1.4335640668869 -0.19326913356781 1.17669153213501
1.41607511043549 -0.25679150223732 1.02814733982086
1.52156329154968 -0.120648272335529 1.21848583221436
1.64931631088257 -0.0804826691746712 1.19587767124176
1.48888564109802 -0.32573065161705 1.35054898262024
1.44533050060272 -0.165720164775848 1.27338290214539
1.79199695587158 -0.104169875383377 0.984334230422974