1.4924339056015 -0.314281731843948 1.35346627235413
1.49129319190979 -0.313117623329163 1.34381592273712
1.7306764125824 -0.0754099935293198 1.35082292556763
1.41790163516998 -0.170086115598679 1.21222853660584
1.4205230474472 -0.159445106983185 1.22595489025116
1.41242635250092 -0.208221048116684 1.16909182071686
1.49044358730316 -0.257005423307419 1.27617418766022
1.48015427589417 -0.235666453838348 1.26427042484283
1.44210422039032 -0.277401030063629 1.2357337474823
1.4419766664505 -0.254977703094482 1.23157465457916
1.4389044046402 -0.251297473907471 1.22297859191895
1.63062989711761 -0.0743775144219399 1.15425527095795
1.45744216442108 -0.282645404338837 1.24894678592682
1.62896203994751 -0.0522438772022724 1.16843771934509
1.46704983711243 -0.174138069152832 1.31063866615295
1.62589144706726 -0.0610028505325317 1.16945958137512
1.47501766681671 -0.161709070205688 1.32248222827911
1.72802495956421 -0.0362805649638176 1.36942207813263
1.65189719200134 -0.0573505163192749 1.19778609275818
1.65376842021942 -0.0760082751512527 1.19176912307739
1.65749800205231 -0.0791051536798477 1.20622754096985
1.62436974048615 -0.0464619770646095 1.17071390151978
1.43116557598114 -0.195696637034416 1.22584223747253
1.42608571052551 -0.19327637553215 1.19819235801697
1.48137021064758 -0.256394386291504 1.26865470409393
1.43514955043793 -0.276266723871231 1.21247017383575
1.62459826469421 -0.0751115828752518 1.15498387813568
1.48819494247437 -0.312174737453461 1.35340940952301
1.62807726860046 -0.0528279729187489 1.1613404750824
1.48466968536377 -0.155704855918884 1.31873750686646
1.51696491241455 -0.141190975904465 1.23981690406799
1.47496497631073 -0.23200136423111 1.26406502723694
1.5610888004303 -0.127859115600586 1.13854849338531
1.62270140647888 -0.0806305706501007 1.15291285514832
1.41825771331787 -0.163498669862747 1.21710932254791
1.49708151817322 -0.14213889837265 1.20499861240387
1.4738734960556 -0.152557522058487 1.17095732688904
1.62618231773376 -0.0735105499625206 1.17947161197662
1.54884004592896 -0.129955053329468 1.13306355476379
1.51182687282562 -0.133073776960373 1.22358548641205
1.61472177505493 -0.0852042138576508 1.14652132987976
1.44792330265045 -0.230664029717445 1.23904085159302
1.43065798282623 -0.159575045108795 1.25050675868988
1.50506222248077 -0.127252697944641 1.12047517299652
1.46429574489594 -0.170683264732361 1.3055282831192
1.41489577293396 -0.175476565957069 1.29930734634399
1.43061292171478 -0.158772945404053 1.25615799427032
1.41587090492249 -0.193750411272049 1.167236328125
1.48803126811981 -0.227345332503319 1.26740097999573
1.41859400272369 -0.210298359394073 1.17403936386108
1.46899163722992 -0.195034593343735 1.24264693260193
1.42053020000458 -0.201956659555435 1.19395935535431
1.43915987014771 -0.150558680295944 1.24403560161591
1.65488243103027 -0.0647231563925743 1.1990213394165
1.4444739818573 -0.175688698887825 1.12882876396179
1.45487642288208 -0.228759109973907 1.2434413433075
1.4465229511261 -0.234521463513374 1.23823380470276
1.43961095809937 -0.26867663860321 1.22974681854248
1.4457676410675 -0.287163466215134 1.23781526088715
1.45982265472412 -0.227910414338112 1.24991095066071
1.41832637786865 -0.16916412115097 1.30281400680542
1.73077797889709 -0.0124829411506653 1.35265374183655
1.46495890617371 -0.168390735983849 1.30479562282562
1.6444445848465 -0.0758863240480423 1.23667621612549
1.64287877082825 -0.042199295014143 1.25506567955017
1.65761160850525 -0.0357070527970791 1.25947082042694
1.63604426383972 -0.0655897706747055 1.22898697853088
1.47752273082733 -0.156930059194565 1.17784297466278
1.42052519321442 -0.170809298753738 1.30020439624786
1.44318616390228 -0.163057342171669 1.27364134788513
1.47975420951843 -0.173776805400848 1.31793296337128
1.63801002502441 -0.074511744081974 1.22952556610107
1.55197334289551 -0.119828969240189 1.13526749610901
1.41368746757507 -0.196448907256126 1.17958116531372
1.42914116382599 -0.192183569073677 1.13352060317993
1.49535059928894 -0.155471786856651 1.19043636322021
1.43880414962769 -0.172744542360306 1.26354992389679
1.67809915542603 -0.195087805390358 0.945081472396851
1.4966721534729 -0.139627531170845 1.20563399791718
1.43862211704254 -0.170350924134254 1.264808177948
1.42502021789551 -0.197378769516945 1.14597392082214
1.44474804401398 -0.240702673792839 1.2338171005249
1.42838978767395 -0.183271646499634 1.22486889362335
1.61507332324982 -0.0778421834111214 1.03103446960449
1.49935853481293 -0.134973376989365 1.20176482200623
1.42105460166931 -0.160802245140076 1.22111690044403
1.63418984413147 -0.0850470885634422 1.17982828617096
1.41587054729462 -0.169745087623596 1.22249245643616
1.73695087432861 -0.0640506744384766 1.35740506649017
1.66675424575806 -0.189190864562988 0.972654700279236
1.43480026721954 -0.148440450429916 1.2514705657959
1.42182493209839 -0.165989711880684 1.21150743961334
1.46241629123688 -0.230543747544289 1.24664187431335
1.43207192420959 -0.155060350894928 1.25137233734131
1.4120626449585 -0.205343976616859 1.16644752025604
1.49907243251801 -0.148517072200775 1.14832472801209
1.43301033973694 -0.19770410656929 1.21243107318878
1.45325040817261 -0.199536070227623 1.24535012245178
1.49486184120178 -0.152860134840012 1.18623828887939
1.49231553077698 -0.225524634122849 1.27228975296021
1.41115164756775 -0.210109129548073 1.16863763332367
1.41729474067688 -0.171027719974518 1.21577370166779
1.4336062669754 -0.159717410802841 1.26597607135773
