2.35873007774353 0.40344962477684 10.2578954696655
2.8000590801239 0.987587451934814 11.0645904541016
1.8316810131073 1.41486942768097 12.2993268966675
-1.98842322826386 -0.648707509040833 1.30387353897095
2.71018481254578 1.27924275398254 9.65922069549561
3.0990002155304 2.18224596977234 12.7541799545288
1.37448740005493 0.334668189287186 8.83082294464111
-2.00458931922913 -0.798218011856079 1.25784111022949
1.80831503868103 2.15355634689331 12.5334119796753
0.611212491989136 1.25222206115723 12.3428182601929
4.91563892364502 -0.0791112184524536 6.61256456375122
6.28269577026367 2.81501722335815 8.39019680023193
7.07159805297852 3.07995057106018 9.28474807739258
10.6436061859131 0.685437679290771 18.923469543457
9.76003360748291 3.62202525138855 11.8670253753662
5.67873764038086 -0.03468918800354 7.7082257270813
6.64424896240234 -0.284694731235504 8.62574672698975
16.7675857543945 5.75398588180542 19.9161815643311
10.297646522522 3.46395444869995 13.5020627975464
14.3807106018066 4.15128469467163 17.6943168640137
5.93060874938965 -0.723638772964478 8.48631381988525
5.54970550537109 -0.375961929559708 8.37883377075195
14.9488544464111 5.18429851531982 18.8320846557617
9.90564918518066 2.49857497215271 13.3039979934692
2.83882403373718 2.25867509841919 10.3209705352783
12.9740056991577 4.25465822219849 16.7816162109375
17.1626396179199 4.57949113845825 21.0804328918457
12.855767250061 3.73300981521606 16.9248943328857
6.43785572052002 -0.0283631384372711 9.74248695373535
15.6655616760254 4.44531631469727 18.1996402740479
23.8953876495361 7.41241645812988 29.6256427764893
0.597346067428589 0.0476486384868622 3.77082014083862
11.8507766723633 2.60161137580872 16.3543453216553
6.04503917694092 -0.703687369823456 9.74000930786133
5.21960639953613 -0.885133624076843 8.66483783721924
3.40830588340759 1.44122099876404 12.9076957702637
13.468189239502 3.87768936157227 18.6127853393555
4.58820343017578 -1.10798513889313 8.07912635803223
14.3770980834961 4.4456729888916 17.7875728607178
6.18436241149902 -1.12281548976898 9.94371604919434
4.79508781433105 -0.41740083694458 8.60648155212402
18.6730346679688 6.45997762680054 25.4579734802246
9.47732543945313 1.93217933177948 14.3889150619507
5.36832141876221 -1.17623662948608 9.24193572998047
6.07096576690674 -0.539761483669281 9.06630420684814
4.79903411865234 -1.26976311206818 8.7446756362915
6.23056507110596 -0.335620641708374 8.61853694915771
5.29778671264648 2.99152016639709 10.0367918014526
3.3720109462738 -0.850362002849579 6.39030933380127
7.51373672485352 -0.026269257068634 10.920919418335
3.76069140434265 2.54139065742493 8.34657955169678
11.4161911010742 3.43027210235596 17.8120555877686
9.1147928237915 4.66802978515625 15.4965343475342
4.25317192077637 -0.795402765274048 7.62723255157471
13.4964513778687 4.57928466796875 21.2455139160156
11.3956718444824 0.159241586923599 15.7159624099731
7.63781833648682 4.24161529541016 13.8362255096436
9.88874626159668 3.04680800437927 16.5569610595703
10.1859159469604 0.0825571417808533 16.7451763153076
5.60561943054199 2.01871252059937 11.2174396514893
6.36979198455811 -0.691662430763245 11.9133710861206
5.91620826721191 -0.663120329380035 11.7806787490845
6.19497299194336 4.12112283706665 12.8989057540894
21.1113605499268 7.55210065841675 29.9415950775146
7.68580627441406 1.45017039775848 15.1090240478516
8.87634468078613 -0.163355737924576 14.3396110534668
9.78075504302979 3.19666814804077 16.1428146362305
5.18591499328613 0.882388234138489 11.7735147476196
11.0562763214111 2.91088557243347 18.9798984527588
5.84025478363037 1.15493142604828 12.8455715179443
8.72353458404541 1.26073479652405 15.4043626785278
12.3053302764893 0.574815630912781 19.8608455657959
2.71227431297302 0.684869766235352 8.60514068603516
6.46158885955811 0.991068840026855 15.0396871566772
3.06175017356873 1.79043400287628 9.80024433135986
4.56923866271973 -0.808330416679382 12.5589799880981
2.62019228935242 1.35663795471191 9.38507556915283
3.62815594673157 2.5826723575592 11.3587512969971
3.37274289131165 0.316036075353622 11.1202669143677
2.50831961631775 2.09839248657227 10.2917098999023
1.99000906944275 2.62941694259644 8.8390064239502
2.86325812339783 2.52403616905212 10.5467214584351
2.77823042869568 2.04120707511902 10.351710319519
2.2698085308075 1.56519544124603 9.78628730773926
2.73088955879211 0.694327592849731 11.0396118164063
2.6562135219574 1.88266384601593 9.5032262802124
2.72414088249207 1.15029954910278 12.0170402526855
1.59825825691223 0.418746680021286 9.62922382354736
1.38238763809204 0.901935219764709 9.27954864501953
1.6833336353302 2.64357137680054 10.1755886077881
5.3560266494751 -0.904472827911377 9.23764896392822
1.3227801322937 0.758590459823608 10.2902221679688
1.19947981834412 0.886658906936646 10.2810888290405
3.89129328727722 3.54721879959106 14.8772621154785
-2.64356017112732 1.01423478126526 8.71696662902832
13.5028085708618 0.825079441070557 13.308219909668
5.18988704681396 0.742353200912476 7.01127099990845
10.8066663742065 5.1832275390625 13.9929294586182
10.4207143783569 5.24596834182739 13.8107204437256
7.25643348693848 4.07410192489624 10.8410139083862
5.93057155609131 3.35419988632202 9.47427272796631
15.6145420074463 2.00224781036377 23.3786296844482
15.2612953186035 4.06369066238403 19.589017868042
14.8878917694092 3.96335792541504 21.0079135894775
5.21630954742432 3.38473987579346 9.86235332489014
12.2797594070435 0.791627049446106 15.7171258926392
11.7272796630859 3.2368438243866 17.8187599182129
6.66909408569336 -0.98979651927948 11.2242870330811
7.68253612518311 0.0805630087852478 13.1062383651733
3.60846877098084 2.61877417564392 8.35108089447021
8.37556171417236 2.49070501327515 14.8893404006958
3.92036175727844 1.85823619365692 8.15838813781738
2.09838271141052 0.806968688964844 11.1759595870972
13.2615871429443 1.07640671730042 20.2506980895996
11.1057567596436 5.40653467178345 17.0016345977783
8.30130100250244 5.60836458206177 15.5165386199951
6.5209846496582 4.62851476669312 13.7558670043945
9.95156955718994 1.17288041114807 19.2049770355225
4.14438056945801 3.6196551322937 11.0743265151978
6.71024894714355 0.786607623100281 15.5535917282104
1.59644198417664 2.37144422531128 7.32136821746826
3.63680720329285 3.26931166648865 10.7513875961304
3.82133793830872 1.32849407196045 11.7956323623657
3.26189827919006 1.30687999725342 11.0046968460083
5.54331874847412 2.30262660980225 10.9703845977783
1.85141444206238 2.69110131263733 8.4165620803833
2.5115339756012 1.74043524265289 9.71194458007813
4.32930088043213 1.98552048206329 14.1375684738159
2.53024983406067 2.29877638816834 10.5733003616333
1.67282176017761 0.903132915496826 8.94285869598389
1.99923872947693 3.10616850852966 9.96734142303467
3.0986921787262 2.80581498146057 10.7010822296143
2.77523732185364 2.54245352745056 12.1624298095703
4.55779457092285 -1.04707181453705 9.8766508102417
2.46941065788269 3.22518301010132 11.9522142410278
7.3647518157959 0.287508398294449 12.2403631210327
1.18704056739807 3.54424524307251 11.442892074585
-0.284990072250366 0.80942177772522 7.44263982772827
-0.469715118408203 1.81499087810516 6.72875308990479
-0.993929505348206 1.39385533332825 6.36648559570313
7.03398513793945 -0.471090376377106 8.08693885803223
2.32562518119812 1.0447404384613 4.56632423400879
14.7563056945801 4.2694034576416 17.5426635742188
9.08253955841064 -0.144001170992851 11.5600776672363
15.6137866973877 5.51521587371826 17.2696857452393
5.02007102966309 3.24384784698486 10.4003458023071
5.40308952331543 -0.609835505485535 11.7578611373901
7.70963668823242 5.56797313690186 14.5608348846436
3.80163931846619 3.53549265861511 9.90275573730469
5.06726741790771 2.86436867713928 12.7066316604614
3.64699721336365 2.04099774360657 10.5697860717773
1.36701703071594 2.23461413383484 9.94324970245361
-2.52184343338013 1.25539660453796 5.70551156997681
4.98257160186768 3.05958414077759 7.83217906951904
15.2164039611816 7.02428245544434 18.0910758972168
22.7927951812744 1.42527711391449 29.5230846405029
31.8960571289063 14.0148553848267 36.9610328674316
4.94182300567627 -0.578438520431519 11.7226133346558
8.9548168182373 6.33410024642944 17.97878074646
5.29391860961914 2.8752908706665 13.6936225891113
4.83341217041016 2.80919098854065 13.2431669235229
3.79769444465637 4.14407873153687 12.5692453384399
4.144775390625 2.45856237411499 11.4995822906494
4.77277278900146 3.00119614601135 12.8226013183594
3.45843291282654 0.768439769744873 11.3009929656982
3.23593592643738 1.03002393245697 10.9802951812744
3.66631674766541 1.70356118679047 11.9885530471802
16.0953426361084 2.00635647773743 21.1926364898682
2.96816945075989 0.760841250419617 12.0013694763184
2.62992739677429 1.67074310779572 11.3514575958252
4.02340793609619 1.28001844882965 12.6514024734497
1.88307976722717 0.736197829246521 11.6286754608154
1.62254214286804 1.61967265605927 11.0368013381958
2.89895462989807 1.92861354351044 11.4673910140991
2.03126645088196 2.28485512733459 10.007884979248
5.11268901824951 -1.2142368555069 8.38954448699951
-1.94295358657837 -0.853662490844727 1.26132607460022
4.86896991729736 0.181637018918991 12.5709371566772
6.43390274047852 -1.1843603849411 10.7792501449585
-2.03582668304443 -0.616500616073608 1.2815375328064
-2.09405636787415 -0.676581382751465 1.23719334602356
-2.1408224105835 -0.663635909557343 1.34296441078186
-2.13841843605042 -0.714880108833313 1.7493382692337
-2.15479183197021 -0.862475991249084 1.47170889377594
1.42480850219727 0.86643123626709 11.4919471740723
-2.25992774963379 -0.946176290512085 1.59072411060333
15.4146156311035 5.18476533889771 22.8655910491943
3.78612446784973 2.70192337036133 13.1857948303223
2.70294547080994 1.83920228481293 10.5272693634033
12.9180126190186 1.22755491733551 20.1282215118408
8.65104484558105 1.76464664936066 15.7364568710327
-2.14521789550781 -0.775935888290405 1.29881465435028
2.5568425655365 0.836790561676025 13.6828327178955
4.90474319458008 2.24289894104004 10.1031589508057
-0.635957360267639 1.7898405790329 7.76271200180054
12.0385770797729 4.07635641098022 20.7352733612061
3.16847634315491 0.400075048208237 6.95247888565063
7.09887409210205 1.20422339439392 14.8076343536377
1.38011598587036 2.43884897232056 12.3815813064575
5.10274791717529 -1.16616117954254 9.52319145202637
2.73388886451721 0.470374137163162 11.2083215713501
5.42526817321777 -0.417177140712738 12.1694068908691
4.47105598449707 -0.842424631118774 11.9601726531982
-2.10535359382629 -0.687239468097687 1.32353234291077
-2.14113903045654 -0.661647915840149 1.33729410171509
-2.22607755661011 -0.718868374824524 1.75839471817017
13.59836769104 1.17766427993774 17.8583793640137
9.43612384796143 -0.186947852373123 15.9021844863892
7.95705223083496 -0.406213283538818 12.2796039581299
6.57704830169678 3.52036380767822 14.3210611343384
8.55972003936768 -0.896994113922119 19.4200420379639
6.44707584381104 -0.115103781223297 9.22469520568848
-1.96934747695923 -0.844826221466064 1.23416149616241
4.30855846405029 2.43648481369019 13.3097867965698
3.26416039466858 1.21119475364685 9.78116226196289
-2.10448384284973 -0.694172203540802 1.26942420005798
4.65269947052002 3.01109886169434 12.7537708282471
2.31143403053284 2.30548977851868 10.7362718582153
5.67060470581055 1.55273675918579 19.6680927276611
1.33056616783142 0.129327803850174 10.4038915634155
-2.200119972229 -0.688053607940674 1.34764206409454
-0.89641797542572 -0.237262114882469 10.2327032089233
14.4551830291748 0.392471522092819 20.1929016113281
-2.16245746612549 -0.713623285293579 1.27654051780701
8.68116664886475 2.96948075294495 11.3560266494751
7.16011428833008 3.04383540153503 10.0916376113892
7.06243133544922 -0.858843088150024 9.33747959136963
7.80480861663818 3.30874586105347 11.2637128829956
7.67453765869141 0.141739457845688 10.7910938262939
10.5594253540039 4.32019758224487 15.6939935684204
7.46222686767578 2.65079474449158 12.3356227874756
7.68926429748535 2.35854125022888 12.6115007400513
8.47904014587402 3.19522929191589 13.8970317840576
2.42608618736267 0.319965869188309 11.3720998764038
11.3147773742676 0.19135370850563 16.9336261749268
4.49545669555664 -0.283238887786865 9.08223724365234
0.739905834197998 0.144384413957596 5.48600912094116
3.88289952278137 3.20914244651794 11.345175743103
3.23877596855164 2.71628308296204 10.5110683441162
3.06274390220642 2.89298224449158 10.2299861907959
-1.97650396823883 -0.628082394599915 1.33398962020874
5.13548278808594 2.54316139221191 12.0522451400757
4.53675746917725 1.2077819108963 14.0664691925049
2.31711077690125 -0.801447153091431 9.98136901855469