0.051106084138155 -0.187574207782745 0.315332561731339
-0.104099169373512 -0.209339067339897 0.389914184808731
-0.163440629839897 -0.243790686130524 0.193775400519371
0.0633642226457596 -0.193347319960594 0.320380836725235
0.0877238512039185 -0.240987807512283 0.139088213443756
0.0655621290206909 -0.22951303422451 0.175528451800346
-0.0245906710624695 -0.17686553299427 0.390237897634506
0.0570667833089828 -0.233348816633224 0.163669034838676
0.0424440689384937 -0.228711187839508 0.175116583704948
0.0582451373338699 -0.245420843362808 0.12427531182766
0.0548030287027359 -0.248394072055817 0.116369217634201
0.0662057399749756 -0.259147882461548 0.0736682340502739
0.0260080080479383 -0.233684927225113 0.163463145494461
-0.150873139500618 -0.257225960493088 0.170748874545097
-0.031776562333107 -0.180934354662895 0.39273339509964
0.0451799407601357 -0.258828282356262 0.0678996592760086
0.0134472884237766 -0.250212132930756 0.105521559715271
-0.00289584696292877 -0.243069291114807 0.139533311128616
0.0298578459769487 -0.260355979204178 0.0684071630239487
0.0052688866853714 -0.245799601078033 0.12103196978569
0.0445863045752048 -0.26964059472084 0.0324996933341026
0.0663889497518539 -0.264958113431931 0.0502351820468903
0.0371152609586716 -0.270916193723679 0.0292296931147575
0.0115785002708435 -0.257353991270065 0.0789313763380051
-0.159384682774544 -0.212164893746376 0.351187735795975
-0.0021287240087986 -0.249073952436447 0.107658535242081
-0.0850299894809723 -0.170837730169296 0.395677536725998
-0.0273054093122482 -0.237846165895462 0.145972639322281
-0.141932860016823 -0.20827691257 0.326579749584198
-0.00142089650034904 -0.268051624298096 0.0413625240325928
0.0516929887235165 -0.231984585523605 0.172026753425598
-0.0127412006258965 -0.2594975233078 0.0935404598712921
-0.0445346310734749 -0.231911271810532 0.170884072780609
-0.00191699713468552 -0.262116670608521 0.0699097439646721
-0.0154982954263687 -0.273764252662659 0.0158325284719467
-0.0881601423025131 -0.211277693510056 0.351120948791504
-0.144543901085854 -0.193428099155426 0.274359554052353
-0.226428493857384 -0.162962049245834 0.393210858106613
-0.233926817774773 -0.167401626706123 0.347493857145309
-0.175496712327003 -0.236595943570137 0.413078904151917
-0.192913413047791 -0.203325048089027 0.20339822769165
-0.12359444797039 -0.206536203622818 0.290861994028091
-0.212558701634407 -0.164563968777657 0.323276400566101
-0.0847447067499161 -0.226157113909721 0.0447830259799957
0.0807084664702415 -0.220908731222153 0.394060879945755
0.0625175312161446 -0.181926116347313 0.393667578697205
0.0602442398667336 -0.221445545554161 0.206947207450867
-0.0189392268657684 -0.180195495486259 0.391553819179535
0.0121810361742973 -0.243143200874329 0.133870422840118
0.033169612288475 -0.256612867116928 0.083364225924015
-0.15571828186512 -0.181876912713051 0.271908283233643
-0.112508744001389 -0.261136740446091 0.104260370135307
-0.00219376012682915 -0.285506844520569 0.00967469811439514
0.0721963346004486 -0.224529206752777 0.395563751459122
0.0368774607777596 -0.167406111955643 0.392812520265579
0.0769146084785461 -0.242055833339691 0.136270850896835
0.105665616691113 -0.267609924077988 0.0439401492476463
0.0591079443693161 -0.220949411392212 0.209045112133026
0.0299603454768658 -0.231397107243538 0.177692875266075
0.0455653145909309 -0.25513955950737 0.0917517244815826
0.0321822203695774 -0.244249910116196 0.122812494635582
-0.0787102878093719 -0.212361186742783 0.351125299930573
0.0218700263649225 -0.245016664266586 0.12802529335022
0.0177359692752361 -0.245612859725952 0.123784199357033
-0.107017233967781 -0.20660588145256 0.360398679971695
0.0116528943181038 -0.247134923934937 0.122273713350296
0.00552948191761971 -0.244576245546341 0.127552211284637
0.00775134563446045 -0.249114722013474 0.11274778842926
0.0596823394298553 -0.223950460553169 0.195708304643631
0.0229425337165594 -0.243636161088943 0.138659983873367
-0.153060972690582 -0.207318067550659 0.390046685934067
-0.129259377717972 -0.214315712451935 0.338218808174133
-0.103537231683731 -0.168538898229599 0.39177680015564
0.0141918510198593 -0.243382602930069 0.124010354280472
-0.0283167362213135 -0.243785232305527 0.138172686100006
0.00561732053756714 -0.251807421445847 0.103928998112679
0.0117130428552628 -0.258608609437943 0.0776830166578293
-0.13206185400486 -0.213145837187767 0.254876494407654
-0.0333081781864166 -0.241892963647842 0.139627292752266
-0.00783175230026245 -0.241869509220123 0.136278286576271
-0.225700125098228 -0.171866193413734 0.391726970672607
-0.153821244835854 -0.239559382200241 0.213812112808228
-0.182763651013374 -0.173580929636955 0.307333379983902
-0.238411471247673 -0.171348929405212 0.363507479429245
-0.109808385372162 -0.256213754415512 0.106070280075073
-0.228790149092674 -0.166123509407043 0.333737581968308
-0.21138696372509 -0.169912919402123 0.302794575691223
-0.22285883128643 -0.164629995822906 0.268504589796066
-0.237925037741661 -0.204909518361092 0.288808614015579
-0.249250426888466 -0.164246082305908 0.341125547885895
-0.00192407518625259 -0.23780745267868 0.149472087621689
-0.224712744355202 -0.16156230866909 0.300641477108002
-0.0830309242010117 -0.22279866039753 0.0394331961870193
-0.157364666461945 -0.203129515051842 0.125248938798904
0.0691678076982498 -0.178435862064362 0.393227517604828
0.0845214277505875 -0.231286391615868 0.393814265727997
0.0472448877990246 -0.169901907444 0.393809020519257
0.0744330510497093 -0.23999759554863 0.141515344381332
0.0738151147961617 -0.250016421079636 0.108823284506798
0.0870842412114143 -0.240037024021149 0.151006922125816
-0.0370510220527649 -0.177668780088425 0.391870588064194
-0.208331182599068 -0.175677597522736 0.315154910087585
-0.0174188539385796 -0.168941870331764 0.391061991453171
0.050698533654213 -0.247238963842392 0.117561176419258
0.0589129738509655 -0.256359457969666 0.0862236469984055
-0.0458956733345985 -0.232632860541344 0.175013482570648
-0.194700211286545 -0.222412049770355 0.39721542596817
-0.158540740609169 -0.153299689292908 0.384457170963287
0.035433255136013 -0.260706722736359 0.0753665938973427
-0.199134990572929 -0.178831741213799 0.315999984741211
-0.176261097192764 -0.25705748796463 0.189544320106506
-0.238354787230492 -0.202743694186211 0.297587007284164
-0.0721317976713181 -0.210765987634659 0.338125884532928
0.0119502507150173 -0.235867083072662 0.15582013130188
-0.344930946826935 -0.188781872391701 0.437543928623199
-0.182063162326813 -0.177975729107857 0.238877952098846
-0.177030324935913 -0.251343816518784 0.157497435808182
-0.151318192481995 -0.253524541854858 0.170059576630592
0.139019697904587 -0.271970629692078 0.0390477553009987
0.0889880210161209 -0.265153288841248 0.0530901625752449
0.0558065250515938 -0.254342973232269 0.0924522131681442
-0.250102639198303 -0.167853951454163 0.371541142463684
-0.29534775018692 -0.170191660523415 0.415879666805267
0.0290537737309933 -0.178624346852303 0.394076883792877
-0.0126909464597702 -0.236965790390968 0.144435688853264
0.0694546103477478 -0.241586029529572 0.142887830734253
0.0925097167491913 -0.257572501897812 0.0804650187492371
0.0268044117838144 -0.244602262973785 0.130378797650337
0.0304754041135311 -0.258743733167648 0.0774471759796143
0.0585154071450233 -0.260760545730591 0.0753113850951195
-0.120192259550095 -0.205461382865906 0.344261586666107
-0.00264299288392067 -0.260701507329941 0.0719745457172394
-0.16101960837841 -0.210110560059547 0.366813123226166
0.0790985822677612 -0.262560993432999 0.0627193301916122
-0.181305155158043 -0.214006543159485 0.359735369682312
0.037360854446888 -0.189865693449974 0.31331729888916
-0.0599003359675407 -0.230126231908798 0.188007280230522
-0.150575771927834 -0.192250236868858 0.27355483174324
-0.170461073517799 -0.18015943467617 0.264429152011871
-0.161280125379562 -0.25120797753334 0.178950071334839
-0.110271766781807 -0.263153463602066 0.0898993611335754
-0.137691468000412 -0.272057831287384 0.115226343274117
-0.0469857156276703 -0.234658226370811 0.175227716565132
-0.239530310034752 -0.159121364355087 0.382110148668289
-0.0495616495609283 -0.286794275045395 -0.0511466972529888
0.0832005366683006 -0.178676530718803 0.394470393657684
-0.0945133864879608 -0.208242401480675 0.342640072107315
0.106851473450661 -0.263739436864853 0.0572240054607391
0.0914249569177628 -0.265263020992279 0.0514701083302498
0.0466770641505718 -0.253478050231934 0.0965239256620407
0.0349971354007721 -0.255958199501038 0.0837344527244568
0.0556949079036713 -0.272099494934082 0.024678073823452
-0.0203696563839912 -0.232090264558792 0.173393428325653
-0.216197356581688 -0.168247267603874 0.280981481075287
-0.026781901717186 -0.254550904035568 0.102132990956306
-0.18279829621315 -0.249338716268539 0.160055369138718
-0.0837847590446472 -0.23777824640274 0.0276961997151375
-0.00337326526641846 -0.246644109487534 0.122711062431335
0.0421873107552528 -0.177898809313774 0.391893893480301
0.0895265117287636 -0.259205430746078 0.0741198435425758
0.0635228231549263 -0.240295112133026 0.140206396579742
0.0776860490441322 -0.235310047864914 0.184937953948975
0.0659000277519226 -0.246923327445984 0.128391668200493
-0.0275114700198174 -0.166749820113182 0.390604287385941
0.0721690282225609 -0.237649410963058 0.148661091923714
0.0382652767002583 -0.237930566072464 0.147637143731117
-0.0527474656701088 -0.17741996049881 0.391359746456146
0.0196696445345879 -0.229418858885765 0.181121438741684
-0.00545872375369072 -0.281935811042786 0.00451363623142242
-0.0227979421615601 -0.228741496801376 0.18298251926899
0.0383719094097614 -0.25655272603035 0.0909614861011505
-0.11431810259819 -0.208238288760185 0.357626140117645
-0.038137212395668 -0.229283019900322 0.184476584196091
0.0364550389349461 -0.263556510210037 0.07245734333992
0.00847911089658737 -0.260345965623856 0.0685441941022873
-0.0404793992638588 -0.231511548161507 0.176389575004578
-0.112640216946602 -0.182694494724274 0.394772201776505
-0.0379959717392921 -0.24026358127594 0.14146463572979
-0.0518780946731567 -0.239619612693787 0.152060315012932
-0.00658069550991058 -0.279981166124344 0.00151696056127548
-0.162376314401627 -0.203592032194138 0.318103909492493
-0.160371094942093 -0.219868019223213 0.384092599153519
-0.133834466338158 -0.191474169492722 0.242087930440903
-0.197785779833794 -0.225399985909462 0.402719855308533
-0.143987700343132 -0.241020679473877 0.222047686576843
-0.185518145561218 -0.195355430245399 0.302640795707703
-0.148579567670822 -0.259420126676559 0.206812605261803
-0.183761239051819 -0.179458856582642 0.295843183994293
-0.160720095038414 -0.187316134572029 0.254783064126968
-0.062577560544014 -0.229762941598892 0.189851850271225
-0.169621497392654 -0.225858241319656 0.35168793797493
-0.24143074452877 -0.158294752240181 0.298855543136597
-0.106380328536034 -0.207552045583725 0.346474289894104
0.0328840389847755 -0.238580644130707 0.143676653504372
0.0271194949746132 -0.234732255339623 0.157342523336411
0.0447724983096123 -0.253738224506378 0.0852055251598358
0.0196920968592167 -0.242635250091553 0.134007543325424
0.0287535153329372 -0.236608684062958 0.154812097549438
0.023039422929287 -0.260205119848251 0.0640896409749985
0.0603175759315491 -0.189503252506256 0.318828046321869
0.0844406560063362 -0.238672316074371 0.143081679940224
0.0986938029527664 -0.25953620672226 0.0648212358355522
0.0691392347216606 -0.234173387289047 0.154048681259155
-0.0934634953737259 -0.222956031560898 0.407149791717529
0.067387156188488 -0.233765795826912 0.158569112420082
0.0740849748253822 -0.245034545660019 0.12283493578434
0.0343045964837074 -0.244670003652573 0.128646910190582
0.0303889121860266 -0.24915274977684 0.109589129686356
0.0559735149145126 -0.255394577980042 0.083467960357666
0.0517585277557373 -0.269072622060776 0.0279523208737373
0.0974869728088379 -0.258446484804153 0.0708453729748726
0.00518388673663139 -0.248023509979248 0.117377206683159
-0.142355099320412 -0.19278983771801 0.263174325227737
0.0056578665971756 -0.262270838022232 0.0699369832873344
-0.133030459284782 -0.199338719248772 0.298704534769058
-0.215624496340752 -0.166719138622284 0.330296158790588
0.0524381659924984 -0.243679583072662 0.126151412725449
0.0273762717843056 -0.248154103755951 0.119765534996986
0.0443859994411469 -0.271048545837402 0.0286307409405708
-0.0366482138633728 -0.24165678024292 0.150800794363022
-0.0342771708965302 -0.242004126310349 0.159935891628265
-0.23499508202076 -0.163570865988731 0.302496492862701
-0.0804222375154495 -0.280968368053436 0.0161051601171494
0.0481648594141006 -0.232267826795578 0.164146259427071
0.0509369783103466 -0.235274389386177 0.156570136547089
-0.131126970052719 -0.203053131699562 0.297417461872101
0.054959811270237 -0.177917271852493 0.392092913389206
-0.173249766230583 -0.181926771998405 0.291869878768921
0.0233198422938585 -0.253265172243118 0.0972950756549835
-0.242019668221474 -0.197833001613617 0.285352319478989
-0.150112599134445 -0.209631398320198 0.361871093511581
-0.0346492975950241 -0.226780325174332 0.192673400044441
-0.251657366752625 -0.159131929278374 0.339111298322678
-0.141072407364845 -0.200096935033798 0.105824679136276
-0.0933118015527725 -0.225480675697327 0.402151256799698
0.0130591690540314 -0.237557590007782 0.154299005866051
-0.153029277920723 -0.186774984002113 0.280038118362427
-0.231593653559685 -0.164124712347984 0.279896885156631
-0.0405432283878326 -0.16857248544693 0.391695708036423
0.0238200481981039 -0.169520139694214 0.39381617307663
0.0523699298501015 -0.176736772060394 0.318712294101715
0.050904855132103 -0.186771720647812 0.319586873054504
-0.00207214429974556 -0.245089948177338 0.129148721694946
0.0206391625106335 -0.266459494829178 0.0487162545323372
0.0939851328730583 -0.242753118276596 0.133715495467186
-0.12300817668438 -0.179393634200096 0.386711657047272
-0.202904149889946 -0.223911672830582 0.388343781232834
-0.162688508629799 -0.183302894234657 0.285040587186813
-0.147302120923996 -0.218106180429459 0.380591332912445
0.195492386817932 -0.165981292724609 0.393169164657593
0.0563566870987415 -0.235498681664467 0.158312112092972
0.0606399662792683 -0.244116425514221 0.129557579755783
-0.108174040913582 -0.259322106838226 0.12229298055172
0.190353900194168 -0.175039008259773 0.399093836545944
0.0174602083861828 -0.258337616920471 0.0821813270449638
0.0508146397769451 -0.256878316402435 0.0912144780158997
-0.117216721177101 -0.176696330308914 0.390832275152206
0.00116292387247086 -0.261210501194 0.0609127059578896
-0.016949862241745 -0.272517263889313 0.0128982253372669
-0.160929203033447 -0.148733913898468 0.381603181362152
-0.0261804014444351 -0.230191737413406 0.17216856777668
0.000607844442129135 -0.242119640111923 0.141333445906639
-0.232531651854515 -0.176443740725517 0.38933253288269
-0.128719568252563 -0.176689460873604 0.387465685606003
0.0193995237350464 -0.23469877243042 0.160626217722893
0.0913711190223694 -0.262809097766876 0.0589757561683655
-0.210857734084129 -0.171909376978874 0.303612977266312
0.137404590845108 -0.270120531320572 0.0438613072037697
0.0406641848385334 -0.189346954226494 0.317277699708939