0.202133178710938 -1.52915096282959 -3.80273485183716
-1.68279194831848 -1.19870352745056 -2.91642761230469
-1.69110774993896 -1.31120002269745 -2.776282787323
-1.60066986083984 -1.17313742637634 -2.79950523376465
-1.60891056060791 -1.28969669342041 -2.78347587585449
-1.74770426750183 -1.35441148281097 -2.79612636566162
-2.01609897613525 -1.49574339389801 -2.93323850631714
-1.90572643280029 -1.33767950534821 -2.79534816741943
-1.88939690589905 -1.29427897930145 -2.78676867485046
-1.88132905960083 -1.33904159069061 -2.77871537208557
-1.77897167205811 -1.41063559055328 -2.82390165328979
-1.68958449363709 -1.20764088630676 -2.89319705963135
-1.97654986381531 -1.4184045791626 -2.92439341545105
-1.61985051631927 -1.13832402229309 -2.92052793502808
-1.56446862220764 -1.24497556686401 -2.98072600364685
-1.7768771648407 -1.46890258789063 -2.78816246986389
-1.6585533618927 -1.28966403007507 -2.7667076587677
-1.6271675825119 -1.23038244247437 -2.78427457809448
-1.67749440670013 -1.36189460754395 -2.77459335327148
-1.69813525676727 -1.40121829509735 -2.77893495559692
0.142692565917969 -1.38002300262451 -3.74917984008789
0.209351062774658 -1.4369204044342 -3.71085500717163
-1.86490726470947 -1.15440332889557 -2.92367196083069
-1.90315508842468 -1.29380989074707 -2.80172252655029
-1.90527701377869 -1.31767213344574 -2.79666996002197
-1.77959775924683 -1.34981203079224 -2.79481267929077
-1.72642970085144 -1.29978251457214 -2.83360266685486
-1.69884943962097 -1.27032256126404 -2.78868126869202
-1.67162144184113 -1.27398633956909 -2.77445983886719
-1.61896193027496 -1.33425033092499 -2.78538298606873
4.99888229370117 0.390788495540619 -7.44276428222656
-1.36847138404846 -1.53669548034668 -2.42682290077209
-1.89207649230957 -1.38339161872864 -2.90517663955688
0.131222724914551 -1.3442702293396 -3.76740646362305
-1.89817023277283 -1.28215706348419 -2.92601728439331
-2.28124499320984 -1.45606648921967 -2.93225646018982
-2.03357362747192 -1.50188612937927 -2.92385649681091
-1.89530420303345 -1.42719531059265 -2.92552661895752
-1.86167240142822 -1.19719183444977 -2.94714546203613
-1.88601684570313 -1.17607915401459 -2.83540320396423
-1.81414639949799 -1.12626814842224 -2.92385125160217
-1.80475568771362 -1.19030737876892 -2.84217548370361
-2.0141658782959 -1.36785995960236 -2.92294716835022
-1.87635254859924 -1.21444237232208 -2.80808639526367
-1.79372048377991 -1.31874632835388 -2.80307936668396
-1.84757947921753 -1.2014365196228 -2.84566426277161
-1.71113967895508 -1.27458143234253 -2.85121536254883
-1.7149453163147 -1.26644587516785 -2.81909704208374
-1.70568466186523 -1.1603991985321 -2.86281561851501
-1.72243249416351 -1.3061695098877 -2.80428862571716
-1.38947451114655 -1.28777503967285 -2.95611381530762
-1.72529470920563 -1.27239072322845 -2.75281929969788
-2.28168892860413 -1.46991300582886 -2.92620301246643
-2.25797200202942 -1.44665789604187 -2.93520355224609
-2.00905227661133 -1.51249551773071 -2.91954326629639
-1.86308538913727 -1.16108977794647 -2.84622836112976
-1.79059839248657 -1.19840061664581 -2.83260822296143
-1.86740779876709 -1.29963564872742 -2.7846839427948
-1.81477069854736 -1.39873313903809 -2.81736898422241
-1.90174770355225 -1.31969916820526 -2.78136825561523
-1.86733269691467 -1.27347779273987 -2.78124380111694
-1.92916738986969 -1.46145510673523 -2.93318367004395
-1.65751147270203 -1.22842693328857 -2.78807163238525
-1.60691034793854 -1.1434211730957 -2.93432283401489
-1.85487914085388 -1.18792593479156 -2.87497639656067
-1.86515462398529 -1.32773685455322 -2.79198598861694
0.375359058380127 -0.504406929016113 -4.06175947189331
-1.84761929512024 -1.17468285560608 -2.84973073005676
-1.57748627662659 -1.00798296928406 -2.89916753768921
7.2455940246582 1.14472055435181 -8.73141670227051
0.203020572662354 -0.348505735397339 -3.78700852394104
0.166802883148193 -0.508439898490906 -3.72761225700378
0.156134366989136 -1.56276392936707 -3.04438781738281
0.218537330627441 -1.50242972373962 -3.06450366973877
0.0947709083557129 -1.53180408477783 -2.98950028419495
-2.30538892745972 -1.47233986854553 -2.93178772926331
-2.28764367103577 -1.49517345428467 -2.93120169639587
-1.8876748085022 -1.14938223361969 -2.87455415725708
-1.77396178245544 -1.46646118164063 -2.80185151100159
-1.81751465797424 -1.23763656616211 -2.89821863174438
-1.85421347618103 -1.1741863489151 -2.91770839691162
-1.84298777580261 -1.34436738491058 -2.77409219741821
-1.72498250007629 -1.13586592674255 -2.85367798805237
-1.77135682106018 -1.31570255756378 -2.79776287078857
-1.55805325508118 -1.24371838569641 -2.85014486312866
-1.58557748794556 -1.46739315986633 -2.80245852470398
-1.55099058151245 -1.45418906211853 -2.82121229171753
-1.57867586612701 -1.34351944923401 -2.7880871295929
-1.59357714653015 -1.15183508396149 -2.89835786819458
-1.82870733737946 -1.18443024158478 -2.77653574943542
-1.60781800746918 -1.34677195549011 -2.80784702301025
-1.84762954711914 -1.38371181488037 -2.79169273376465
6.56343746185303 0.948591530323029 -8.40827941894531
5.92408275604248 0.447191774845123 -7.89745712280273
-1.61893033981323 -1.16195905208588 -2.88294172286987
0.279155254364014 -1.07362639904022 -3.34396195411682
0.113097906112671 -1.42639446258545 -2.97756004333496
-0.08909010887146 -1.43838381767273 -2.97460913658142