0.96406763792038 -0.692183673381805 2.86219096183777
0.962447345256805 -0.678317844867706 2.86423492431641
0.542029857635498 0.192390665411949 2.98654079437256
0.577138483524323 -0.463415503501892 2.81114482879639
0.653490483760834 0.192797675728798 2.9500880241394
0.576435744762421 -0.818102419376373 2.6651976108551
0.290318787097931 0.479122161865234 3.08084487915039
0.294348359107971 -0.317238509654999 3.06319046020508
0.750688552856445 0.472606897354126 2.90593957901001
0.755242168903351 0.385194212198257 2.91461610794067
1.23265361785889 -0.843656241893768 2.36486053466797
1.21534168720245 -0.821506321430206 2.73665118217468
1.19284069538116 -0.824453294277191 2.74638533592224
0.210476994514465 0.202367469668388 3.09079003334045
0.735553801059723 -0.743863165378571 2.85681700706482
1.21187877655029 -0.815979897975922 2.56301593780518
0.69940322637558 -0.799061238765717 2.67999505996704
0.609297633171082 0.490227043628693 2.94827175140381
0.145484089851379 0.00770202279090881 3.05246829986572
0.604813635349274 -0.44695246219635 2.84177422523499
0.779914438724518 -0.790671169757843 2.79183983802795
0.325548112392426 0.09487384557724 3.03763508796692
-0.191195785999298 -0.754930913448334 2.81597852706909
0.603488206863403 -0.813946187496185 2.52775239944458
0.60710346698761 -0.470811426639557 2.79267930984497
1.13381385803223 -0.827908337116241 2.41924500465393
1.0501971244812 -0.838688433170319 2.40092992782593
0.365358233451843 -0.808753192424774 2.09765791893005
1.05279839038849 -0.342576861381531 2.82190370559692
1.10676276683807 -0.26681923866272 2.82526183128357
0.683711230754852 0.432471603155136 2.92436456680298
0.651246428489685 0.41492035984993 2.9034595489502
0.481626242399216 0.433895289897919 2.96108341217041
0.657538175582886 0.473596334457397 2.93101000785828
0.666688442230225 0.508655667304993 2.92761182785034
0.477587938308716 -0.802640378475189 2.73789644241333
0.0483149886131287 0.244747474789619 3.06646847724915
0.222868621349335 0.363480597734451 3.07148575782776
0.562513589859009 -0.477749288082123 2.87440538406372
0.38162225484848 -0.764626443386078 3.05305910110474
0.409718811511993 0.470014810562134 2.97750973701477
-0.407269775867462 -0.262368440628052 3.2730541229248
0.712202310562134 -0.714875400066376 2.85625648498535
0.118524372577667 -0.369356989860535 3.15262627601624
0.428710401058197 -0.813584983348846 2.14633917808533
0.190822541713715 -0.416208505630493 3.19042205810547
0.581541538238525 -0.746754944324493 2.7031090259552
0.516408383846283 -0.804862082004547 2.0853328704834
0.546427488327026 -0.783860385417938 2.45695447921753
0.679217100143433 0.412218183279037 2.93777990341187
0.7485072016716 0.531229794025421 2.91343808174133
0.644616603851318 -0.540122509002686 2.91787004470825
1.24318814277649 -0.809045970439911 2.74162936210632
0.620752692222595 0.476549416780472 2.94937992095947
0.0673192143440247 0.448890447616577 3.12759399414063
-0.740961015224457 -0.616272270679474 3.33218431472778
0.665102005004883 0.524653673171997 2.93107032775879
0.458482652902603 -0.523568987846375 2.89515829086304
0.0240100026130676 0.312560349702835 3.09524726867676
-0.642699062824249 -0.666315972805023 3.22545218467712
0.6264888048172 0.537001729011536 2.94585800170898
0.014772891998291 -0.585298478603363 3.09070730209351
-0.528332412242889 -0.713980853557587 3.22780752182007
0.180711269378662 -0.765216767787933 2.03864407539368
1.23970293998718 -0.825221717357636 2.55210971832275
-0.500261962413788 -0.345815896987915 3.26482820510864
0.436934888362885 -0.791739523410797 2.06980848312378
1.27557945251465 -0.814537703990936 2.66498160362244
0.744162857532501 -0.801031172275543 2.86463832855225
0.525624334812164 -0.800706207752228 2.2607307434082
-0.0680952668190002 0.435326337814331 3.1226487159729
0.46089380979538 -0.793906033039093 2.04210543632507
0.492181420326233 -0.788133203983307 2.30234670639038
1.15816509723663 -0.850238859653473 2.25415372848511
0.371372699737549 -0.778444826602936 2.00645065307617
0.251787006855011 0.0468558669090271 3.0256404876709
0.584928691387177 -0.814052879810333 2.05890846252441
0.690172433853149 -0.822635233402252 2.11162066459656
0.67046582698822 -0.802086293697357 2.08597183227539
0.85538375377655 -0.660236418247223 2.88687705993652
0.383956253528595 -0.706677258014679 1.9747725725174
0.75287663936615 -0.810397922992706 2.85237812995911
0.852913558483124 -0.678081214427948 2.89196872711182
1.07634377479553 -0.689994275569916 2.82521200180054
0.473565876483917 -0.520864248275757 2.87284660339355
0.7425856590271 -0.677732765674591 2.92400240898132
0.239361584186554 -0.791207373142242 3.02588510513306
0.080622673034668 -0.6431525349617 3.1188006401062
-0.0264610052108765 0.316973149776459 3.15191888809204
-0.0146824717521667 0.173086732625961 3.15677285194397
0.100346267223358 0.204056546092033 3.12557482719421
-0.371871411800385 -0.749712646007538 3.20408153533936
-0.323957622051239 -0.767848193645477 3.20262289047241
0.45492422580719 -0.780055940151215 2.75865888595581
0.621041059494019 -0.46071320772171 2.82320070266724
0.61139041185379 -0.809858858585358 2.56096386909485
0.667890906333923 0.401463270187378 2.93364000320435
0.00805258750915527 0.410462230443954 3.13292360305786
1.05253934860229 -0.359137713909149 2.8182544708252
0.977979898452759 -0.268756747245789 2.85800123214722
0.745617389678955 0.396893739700317 2.91388964653015
0.775768280029297 0.413447707891464 2.91085004806519
1.18695938587189 -0.697619259357452 2.79444813728333
1.07557570934296 -0.673090398311615 2.82217645645142
1.24509239196777 -0.802862226963043 2.71483826637268
0.692258656024933 -0.484515607357025 2.81274676322937
1.30029058456421 -0.700320184230804 2.76023721694946
0.482341349124908 0.426061719655991 2.98152017593384
0.401998400688171 -0.028630256652832 3.01499915122986
0.989404439926147 0.183554828166962 2.85001254081726
0.647199392318726 -0.808775246143341 2.68197870254517
0.104741632938385 0.362511992454529 3.12090969085693
0.214549899101257 0.358862787485123 3.08487319946289
0.530340194702148 -0.689293444156647 2.78093981742859
0.693147301673889 -0.593425095081329 2.82699823379517
1.09396231174469 -0.0470710098743439 2.81894636154175
0.190043926239014 -0.622633039951324 3.0805287361145
1.20195662975311 -0.276057124137878 2.78880834579468
1.18623328208923 -0.688596069812775 2.79769349098206
1.16438496112823 -0.840761005878448 2.40297627449036
0.40395849943161 0.0595836043357849 3.00726914405823
0.144805669784546 -0.297389924526215 3.11727666854858
0.982534050941467 0.394140750169754 2.85219144821167
0.656510829925537 0.373266577720642 2.94688749313354
0.112621605396271 0.36860203742981 3.10649347305298
0.435537993907928 0.353716343641281 3.01337003707886
0.616730272769928 0.403847396373749 2.95750021934509
0.519927501678467 0.384790360927582 2.98626756668091
1.1668826341629 -0.832165777683258 2.37591576576233
0.692312240600586 0.399992883205414 2.93725442886353
0.710572719573975 0.451716184616089 2.92088842391968
0.655540943145752 0.453926354646683 2.9374885559082
0.514537334442139 0.392552584409714 2.97053146362305
0.327454507350922 0.362102806568146 3.04459142684937
0.896713018417358 0.397016316652298 2.87581872940063
0.786665856838226 -0.80494612455368 2.406818151474
0.387444496154785 -0.280429244041443 3.00244426727295
0.150840878486633 0.0668147802352905 3.10164642333984
0.199284851551056 -0.341342687606812 3.08812975883484
0.141505300998688 -0.293205857276917 3.09408712387085
1.16175186634064 -0.818518817424774 2.3208065032959
0.662755012512207 -0.453782439231873 2.79164600372314
0.645427167415619 -0.810397088527679 2.76114916801453
1.24990344047546 -0.831144750118256 2.37082648277283
0.742522358894348 -0.672747552394867 2.93510556221008
0.303771018981934 -0.617979347705841 3.03574562072754
-0.0341444611549377 -0.790850102901459 2.24184274673462
0.396161019802094 -0.298476457595825 3.00630617141724
0.148624956607819 0.0354442298412323 3.12166261672974
0.323097229003906 0.356691241264343 3.05306959152222
0.524823009967804 -0.72013932466507 2.77001881599426
0.539780855178833 -0.747404754161835 2.70810198783875
0.291268706321716 -0.778990805149078 2.99966216087341
1.1327611207962 -0.819799721240997 2.78705215454102
0.200654447078705 -0.630197465419769 3.06611490249634
0.43844610452652 0.359291821718216 3.00736546516418
1.2064573764801 -0.464598834514618 2.77124452590942
0.380390703678131 0.0520930290222168 2.9939112663269
0.605548977851868 -0.450017333030701 2.8081111907959
0.631463170051575 -0.740148842334747 2.680743932724
0.53793877363205 -0.0283697545528412 2.98770666122437
0.972314059734344 -0.485636293888092 2.85422611236572
1.16314542293549 -0.831961929798126 2.37358236312866
0.879208981990814 -0.794536173343658 2.8212776184082
0.570344030857086 -0.501751840114594 2.80013036727905
0.533200144767761 -0.643850982189178 2.78232669830322
0.765820622444153 0.189844846725464 2.91698884963989
0.0555996298789978 0.441264390945435 3.12221908569336
0.0376118421554565 0.226679772138596 3.09387493133545
1.08504819869995 -0.401126861572266 2.82612204551697
1.08696019649506 0.16394916176796 2.83106422424316