-0.809024453163147 -0.479011029005051 0.0206641554832459
-1.09427976608276 -0.253855586051941 -0.178284868597984
-0.709952354431152 -0.487159341573715 0.0612930655479431
-0.501260995864868 -0.515932619571686 -0.0981462597846985
-0.463983476161957 -0.527314960956573 0.0226885229349136
-1.38146233558655 -0.0670070350170136 -0.0198027789592743
-0.524851977825165 -0.543500900268555 -0.256218552589417
-0.513035178184509 -0.553342819213867 -0.220625326037407
-0.534645795822144 -0.536354899406433 -0.292834609746933
-0.512322127819061 -0.560159027576447 -0.229425609111786
-0.516681015491486 -0.60353821516037 -0.182818859815598
-0.577461719512939 -0.468640118837357 -0.117985233664513
-0.492495149374008 -0.511462032794952 -0.0103165209293365
-1.09529411792755 -0.306311100721359 -0.237744942307472
-0.617055177688599 -0.490112513303757 -0.157894253730774
-0.620806634426117 -0.488555938005447 -0.155929923057556
-0.609494864940643 -0.479380637407303 -0.137953341007233
-0.51814204454422 -0.490436881780624 -0.059039980173111
-0.531083106994629 -0.495362818241119 -0.0995864123106003
-0.525900483131409 -0.477036625146866 -0.0907677710056305
-0.572506427764893 -0.492871344089508 -0.124224379658699
-0.574079811573029 -0.47603714466095 -0.118428252637386
-0.544386506080627 -0.476075619459152 -0.101759597659111
-1.36930584907532 -0.104559279978275 0.0158834606409073
-1.25704526901245 -0.225072488188744 -0.309786677360535
-0.579111576080322 -0.483356595039368 -0.124684512615204
-1.3856348991394 -0.10019601136446 -0.00878390669822693
-0.530222952365875 -0.489403575658798 -0.0931214168667793
-1.13043677806854 -0.143024832010269 0.158625960350037
-0.490890204906464 -0.499537706375122 -0.0129105299711227
-0.566472232341766 -0.494371712207794 -0.121599696576595
-0.443775773048401 -0.5555699467659 0.0525423586368561
-0.483948111534119 -0.495926827192307 -0.0334314405918121
-1.43300080299377 -0.114985436201096 -0.0678853243589401
-0.522857308387756 -0.489615470170975 0.00982317328453064
-1.32490873336792 -0.200745895504951 -0.2606081366539
-0.595098614692688 -0.479386746883392 -0.134490430355072
-1.14151060581207 -0.120760910212994 0.179595172405243
-0.441159129142761 -0.572807908058167 0.0412050038576126
-0.438221275806427 -0.544197201728821 0.0866088569164276
-0.439571976661682 -0.572450578212738 0.0492240488529205
-0.448634505271912 -0.534957647323608 0.061220109462738
-0.462091952562332 -0.509457945823669 0.0680677890777588
-0.4354567527771 -0.544078648090363 0.0956412851810455
-1.38415336608887 -0.105398237705231 0.00915203988552094
-0.514679372310638 -0.564414322376251 -0.20670773088932
-1.24456191062927 -0.194310754537582 -0.2096146941185
-0.515825390815735 -0.651818692684174 -0.172392308712006
-0.462908983230591 -0.530786454677582 0.012830525636673
-0.45540452003479 -0.535022079944611 0.0488182455301285
-1.54028296470642 -0.171456098556519 -0.41998678445816
-0.464335322380066 -0.537925899028778 -0.000186353921890259
-1.31523609161377 -0.474212259054184 -0.447712153196335
-1.24951148033142 -0.244126334786415 -0.32772970199585
-1.34628009796143 -0.45154395699501 -0.505602598190308
-1.47713899612427 -0.180824339389801 -0.411746859550476
-0.796341419219971 -0.4864262342453 -0.400034844875336
-1.22422051429749 -0.298515230417252 -0.343995690345764
-1.13857245445251 -0.476873844861984 -0.460759788751602
-0.754361927509308 -0.493876188993454 -0.375895887613297
-0.676795959472656 -0.49029541015625 -0.242363959550858
-1.37729525566101 -0.212377101182938 -0.422401368618011
-1.59122252464294 -0.182267293334007 -0.204938024282455
-0.491212129592896 -0.587425231933594 -0.092361755669117
-1.28377890586853 -0.251148700714111 -0.361819982528687
-1.46882510185242 -0.192455321550369 -0.433352082967758
-1.47130036354065 -0.177161157131195 -0.451713234186172
-1.36280202865601 -0.222285732626915 -0.444884538650513
-0.776046812534332 -0.490195959806442 0.02145716547966
-1.18605208396912 -0.266914129257202 -0.291778475046158
-1.43370342254639 -0.180299162864685 -0.377252221107483
-1.37323069572449 -0.326911777257919 -0.501021862030029
-0.765504956245422 -0.480903923511505 -0.385604381561279
-0.881885409355164 -0.479051053524017 -0.377330958843231
-0.565600991249084 -0.553016841411591 -0.388656765222549
-0.510530769824982 -0.492146998643875 -0.0777489766478539
-1.12113261222839 -0.259291708469391 -0.204757735133171
-0.609465003013611 -0.493848890066147 -0.370618939399719
-1.35624241828918 -0.303667396306992 -0.488998591899872
-1.19167733192444 -0.277564734220505 -0.308095932006836
-0.567646026611328 -0.498236268758774 -0.123922154307365
-1.35076761245728 -0.377634733915329 -0.540318012237549
-1.05912363529205 -0.487023085355759 -0.48227471113205
-0.48136106133461 -0.519912779331207 -0.0398842841386795
-1.31848454475403 -0.277266800403595 -0.419671475887299
-1.51031017303467 -0.175270304083824 -0.503504514694214
-1.30219006538391 -0.247156888246536 -0.395642787218094
-1.49419212341309 -0.175620332360268 -0.447661161422729
-1.53319478034973 -0.183863520622253 -0.310537278652191
-0.769538521766663 -0.481615245342255 -0.380319803953171
-1.12746953964233 -0.296542465686798 -0.261753022670746
-0.55114871263504 -0.54902708530426 -0.330457925796509
-0.507493376731873 -0.57980751991272 -0.205668538808823
-0.514905214309692 -0.57922488451004 -0.235285997390747
-0.841522395610809 -0.49562668800354 -0.409029603004456
-0.577094078063965 -0.640750408172607 -0.351331204175949
-0.580251574516296 -0.522409558296204 -0.396911233663559
-0.605665624141693 -0.498932123184204 -0.382744401693344
-0.585469603538513 -0.507830262184143 -0.393868625164032
-1.22479009628296 -0.241781622171402 -0.290865242481232
-0.553452134132385 -0.65230530500412 -0.333908885717392
-0.813457369804382 -0.480901479721069 0.00917640328407288
-0.594469785690308 -0.50429368019104 -0.413870066404343
-0.556522369384766 -0.661681592464447 -0.340778946876526
-0.591697812080383 -0.509702503681183 -0.405636429786682
-0.508686721324921 -0.670497536659241 -0.185138255357742
-0.584164142608643 -0.709405899047852 -0.4769646525383
-0.529622614383698 -0.686861515045166 -0.282828778028488
-0.51355242729187 -0.658343493938446 -0.194694593548775
-0.519186675548553 -0.675121665000916 -0.25497105717659
-1.15349292755127 -0.246726825833321 -0.236036002635956
-1.14261555671692 -0.24819453060627 -0.222436904907227
-1.11770248413086 -0.262510240077972 -0.225991457700729
-0.956561684608459 -0.483901411294937 -0.0599480122327805
-0.950581252574921 -0.489040464162827 -0.0566939562559128
-0.936171412467957 -0.490077912807465 -0.0779199004173279
-0.950432360172272 -0.480157524347305 -0.085573822259903
-1.00604641437531 -0.491814374923706 -0.155063092708588
-1.30060148239136 -0.466929584741592 -0.450939685106277
-0.754293501377106 -0.486304521560669 -0.358608424663544
-0.901694238185883 -0.486953109502792 -0.332109898328781
-1.08118414878845 -0.311217695474625 -0.232749372720718
-0.889218926429749 -0.476571410894394 -0.383136630058289
-0.892831027507782 -0.485175013542175 -0.40051656961441
-0.856819272041321 -0.492727816104889 -0.319734871387482
-0.700394809246063 -0.492408812046051 -0.200941726565361
-0.694162368774414 -0.493986427783966 -0.202784910798073
-0.631283581256866 -0.486457049846649 -0.326579451560974
-0.965097427368164 -0.465539962053299 -0.0677752643823624
-0.663924694061279 -0.483932644128799 -0.27615624666214
-1.28114938735962 -0.483039557933807 -0.431128889322281
-0.65756618976593 -0.484750509262085 -0.283627569675446
-1.19875383377075 -0.235730871558189 -0.253003060817719
-1.08119380474091 -0.329035848379135 -0.228374153375626
-1.32728028297424 -0.479511380195618 -0.478092163801193
-1.24734902381897 -0.485883057117462 -0.370466470718384
-1.22062158584595 -0.486156642436981 -0.363927364349365
-1.22026324272156 -0.481285333633423 -0.348285913467407
-0.764559030532837 -0.486565768718719 -0.023933082818985
-1.10136461257935 -0.308278650045395 -0.248959735035896
-0.775721251964569 -0.47848579287529 -0.233020544052124
-1.27605891227722 -0.421302706003189 -0.357798904180527
-0.675315976142883 -0.495321929454803 0.078103631734848
-1.13159584999084 -0.25994074344635 -0.240078166127205
-1.10447764396667 -0.486293286085129 -0.44895738363266
-0.687243223190308 -0.477036565542221 -0.184481248259544
-0.641917884349823 -0.491725444793701 -0.168814092874527
-0.660200595855713 -0.481389373540878 -0.168503537774086
-1.27331471443176 -0.255290389060974 -0.35282963514328
-1.2129989862442 -0.26865428686142 -0.328670710325241
-1.53125047683716 -0.17783285677433 -0.308097720146179
-1.23023915290833 -0.234025835990906 -0.315981149673462
-0.775957226753235 -0.487744003534317 -0.331108778715134
-0.647886633872986 -0.488371998071671 -0.303500205278397
-1.10652804374695 -0.290248364210129 -0.239063963294029
-0.684851408004761 -0.506157159805298 -0.20595483481884
-1.2937159538269 -0.202662631869316 -0.239807516336441
-0.690167784690857 -0.485328793525696 -0.234577834606171
-1.25185143947601 -0.188324972987175 -0.211183965206146
-1.25069415569305 -0.171952575445175 -0.188785821199417
-0.643403887748718 -0.488463521003723 -0.2935910820961
-1.55354380607605 -0.148123353719711 -0.211684480309486
-0.655031383037567 -0.486584424972534 -0.272931158542633
-0.755136847496033 -0.496154844760895 -0.342747151851654
-0.753363311290741 -0.498252987861633 0.0348556488752365
-1.08903384208679 -0.249159201979637 -0.170235633850098
-1.26141834259033 -0.174133598804474 -0.215165600180626
-0.654884815216064 -0.468066930770874 -0.161229237914085
-1.41855096817017 -0.189446195960045 -0.284713208675385
-1.6175262928009 -0.178901046514511 -0.341731637716293
-1.2181533575058 -0.242938190698624 -0.307273060083389
-0.68347042798996 -0.483748346567154 -0.184621334075928
-1.18977808952332 -0.0743478089570999 0.191926151514053
-1.18383932113647 -0.0654538720846176 0.193736165761948
-1.25529980659485 -0.0758461505174637 0.115075469017029
-1.25371277332306 -0.0697220712900162 0.112973839044571
-1.1166205406189 -0.299087226390839 -0.255557984113693
-1.20715689659119 -0.06317088752985 0.167571187019348
-1.15788340568542 -0.0903795287013054 0.207741379737854
-1.15577721595764 -0.0868545174598694 0.198442250490189
-1.27973437309265 -0.0901478305459023 0.0782109200954437
-1.1323310136795 -0.153865605592728 0.144965171813965
-1.27208769321442 -0.082893505692482 0.096130907535553
-0.501112639904022 -0.54054468870163 -0.117510557174683
-0.502725899219513 -0.550181329250336 -0.133376717567444
-0.491149008274078 -0.521843910217285 -0.0773188844323158
-0.486071735620499 -0.541056752204895 -0.0701755285263062
-1.07705473899841 -0.304687798023224 -0.217348098754883
-0.511548280715942 -0.500234603881836 -0.0886722579598427
-0.481290280818939 -0.547789931297302 -0.0862505659461021
-0.503278911113739 -0.50169837474823 -0.0881853699684143
-0.477046132087708 -0.516844809055328 -0.0221714526414871
-0.562750458717346 -0.481044262647629 -0.115378946065903
-0.556056439876556 -0.490488469600677 -0.0784673914313316
-0.45259028673172 -0.551668763160706 0.0305707603693008
-0.476199805736542 -0.543919622898102 -0.0429596751928329
-0.516199707984924 -0.494522631168365 -0.0840615332126617
-0.501875698566437 -0.493144690990448 -0.0129451602697372