0.0887624025344849 -0.158417850732803 0.961178064346313
-0.0150788426399231 -0.109938703477383 1.00975441932678
-1.42751336097717 -0.574409127235413 0.356148272752762
-5.35873174667358 0.534780144691467 4.34980773925781
-2.9549024105072 0.81520813703537 5.1950945854187
-8.5612096786499 1.3178391456604 9.07071208953857
-5.94474172592163 0.466682255268097 6.49977207183838
-2.26973485946655 -0.583059966564178 6.81882476806641
-2.81966376304626 -0.518047690391541 8.08545684814453
-0.054013192653656 -0.257226675748825 0.816649794578552
-1.66161823272705 1.02341365814209 5.00750541687012
-8.99750900268555 2.38527035713196 7.80507040023804
-4.17726612091064 0.977904856204987 5.76158332824707
0.0952321887016296 -0.223131090402603 0.904925465583801
-10.9025163650513 0.993402361869812 10.5202331542969
-0.0288923382759094 -0.654413998126984 0.651661813259125
0.000593066215515137 -0.750942647457123 1.07814025878906
-11.2924394607544 1.85169422626495 9.48609447479248
-1.56938505172729 -0.452602654695511 0.819729030132294
-14.1845674514771 2.30466055870056 8.1015100479126
-0.0628160238265991 -0.0714246109127998 0.365775287151337
-10.2244882583618 1.45997369289398 7.47722196578979
0.0524874329566956 -0.0101197510957718 0.447531998157501
-0.907477557659149 -0.752503454685211 0.386508166790009
0.0320183038711548 -0.721602439880371 0.633956015110016
-2.73178648948669 0.00733867287635803 4.51236009597778
-7.57052850723267 -0.287335246801376 5.3820161819458
-0.0863661766052246 -0.247114717960358 0.828445732593536
-3.03902363777161 -0.717683613300323 0.575790286064148
-2.66519451141357 0.924560725688934 5.31884622573853
-3.32253217697144 1.20409953594208 5.2013258934021
-10.2106647491455 1.38931035995483 6.31736469268799
0.0861538648605347 -0.160103768110275 0.49898499250412
-9.04774188995361 1.64120507240295 5.61865997314453
0.00156736373901367 0.00412867963314056 0.441743612289429
0.045428991317749 -0.269017934799194 0.819734632968903
-0.00616401433944702 -0.732987940311432 1.01925218105316
0.0926728844642639 -0.383364021778107 0.939395666122437
0.0336175560951233 -0.266356229782104 0.806702375411987
-3.01492285728455 -0.346177816390991 5.52681922912598
-3.57754135131836 -0.591054022312164 5.41853523254395
0.0780841112136841 -0.166737884283066 0.472737610340118
-5.30819416046143 -0.38078984618187 7.48202848434448
0.0526639223098755 -0.135252594947815 0.974053263664246
-5.53077411651611 -0.415933459997177 7.3053560256958
-6.64523124694824 -0.269670695066452 8.05179500579834
-6.43176984786987 -0.405998200178146 7.56399488449097
-7.68878793716431 -0.538540601730347 6.8726110458374
-8.63852596282959 -0.536118566989899 6.68003082275391
-7.7319712638855 -0.565463483333588 3.96256542205811
-1.53529787063599 -0.267401099205017 0.96082329750061
-6.06024169921875 -0.159004956483841 7.1394100189209
0.0761832594871521 -0.725831806659698 0.620884478092194
-10.2278604507446 -0.619120359420776 7.16282987594604
-7.51664876937866 -0.2519770860672 7.07180500030518
-7.65715456008911 -0.612548768520355 3.91975736618042
-1.45478987693787 -0.148794442415237 0.448570489883423
-6.22399616241455 -0.0884056612849236 6.93009948730469
-3.94961214065552 0.202120840549469 6.99236679077148
-7.10234260559082 0.215208292007446 7.80964326858521
-3.35985708236694 -0.406075865030289 5.96004247665405
-0.0218087434768677 -0.745859920978546 1.40459525585175
0.074729323387146 -0.385278433561325 0.926906704902649
0.0503450632095337 -0.0459475591778755 0.435410559177399
0.037774384021759 -0.161799788475037 0.882315099239349
0.069038987159729 -0.362757116556168 0.913045525550842
0.261140644550323 -0.729979276657104 0.569110095500946
-0.0700377821922302 -0.226878821849823 0.830945432186127
0.0450713634490967 -0.0283801928162575 0.543301463127136
0.053612232208252 0.00975392013788223 0.495425343513489
0.0244251489639282 -0.730770409107208 0.527454257011414
0.0534026622772217 -0.0589987561106682 0.468607902526855
0.0116186141967773 -0.728602349758148 0.504825830459595
0.0533725619316101 -0.156271010637283 0.461569905281067
0.0352126359939575 -0.144922375679016 0.966245651245117
0.0465568900108337 -0.0342182591557503 0.442754507064819
0.0967506766319275 -0.402064591646194 0.507734775543213
0.0516242980957031 -0.0616320893168449 0.422990918159485
0.0530747771263123 -0.0617575570940971 0.471314370632172
0.0487238764762878 -0.0342710688710213 0.457952558994293
0.0262009501457214 -0.00707703828811646 0.462239801883698
-0.0182411670684814 -0.211430490016937 0.372453033924103
-0.157261312007904 -0.732087850570679 0.337382435798645
-0.17143726348877 -0.741742432117462 0.412524998188019
-1.77694702148438 -0.744728207588196 0.933663845062256
-1.65321373939514 -0.443403750658035 0.859319746494293
-1.4483482837677 -0.497463673353195 0.805829584598541
-1.38910031318665 -0.226156502962112 0.512347817420959
-1.47873282432556 -0.40400692820549 0.440523743629456
-1.48600697517395 -0.75670063495636 0.530385911464691
-1.44661927223206 -0.333813071250916 0.432126700878143
-1.48157691955566 -0.557812571525574 0.336352288722992
-1.40537333488464 -0.735920667648315 0.414626240730286
-1.3623194694519 -0.246621012687683 0.507157742977142
-6.28670406341553 0.360421806573868 7.02746105194092
-3.37975263595581 -0.184546500444412 6.41013813018799
-0.0893583297729492 -0.233776807785034 0.400485754013062
-6.14303159713745 -0.0200931504368782 8.24250221252441
-2.93105912208557 -0.0393597707152367 6.23853921890259
-5.45945978164673 0.0162717550992966 7.02180624008179
0.0496231317520142 -0.0482711121439934 0.456725895404816
-9.90247631072998 -0.453524261713028 6.49916839599609
0.0471792817115784 -0.0612780973315239 0.417990148067474
-1.48841786384583 -0.592733979225159 0.705940961837769
-0.208554089069366 -0.727368295192719 0.32468193769455
0.028566300868988 -0.123011820018291 0.934386253356934
-6.71578359603882 0.38138422369957 7.0853385925293
-1.5868444442749 -0.452881187200546 0.662716805934906
-7.38585042953491 -0.523159861564636 7.13416004180908
-0.632062971591949 -0.746816396713257 0.445892870426178
-3.55463981628418 -0.0258789137005806 6.35646533966064
-9.97551345825195 0.542854726314545 6.44528341293335
0.0874614715576172 -0.186617076396942 0.954247355461121
0.082220733165741 -0.240239411592484 0.379424959421158
0.0902043581008911 -0.229237020015717 0.975786209106445
-10.0713872909546 1.5437433719635 8.32565879821777
-2.31827020645142 -0.693118095397949 6.33471298217773
0.0969025492668152 -0.0811233893036842 0.538961470127106
-0.716054022312164 -0.725082099437714 0.365153104066849
-10.5008907318115 1.47936940193176 7.50264406204224
0.0632343292236328 -0.196923464536667 0.462255954742432
-1.5258424282074 -0.620633244514465 0.637564837932587
0.0486778616905212 -0.242952525615692 0.386802047491074
-9.96460247039795 0.384341388940811 7.46326637268066
-11.6851348876953 0.569514036178589 6.35848093032837
0.15510892868042 -0.0465872660279274 0.539268434047699
-10.6943063735962 1.21500945091248 7.24710702896118
-17.8719539642334 2.1843249797821 8.42427921295166
0.0226619243621826 -0.0612573549151421 0.351456940174103