-5.17640542984009 -0.344285398721695 10.3853778839111
-3.16952633857727 -0.360918611288071 6.5296893119812
-5.20115327835083 0.155956760048866 11.9734172821045
0.415641367435455 -1.34687101840973 2.96408414840698
-0.31591984629631 -0.259226471185684 1.75827789306641
-4.86444473266602 -1.45341444015503 14.5256519317627
-0.530870795249939 -1.47027146816254 2.03998804092407
-2.08772420883179 -2.07633137702942 4.58685445785522
-0.57099974155426 0.26432079076767 2.44966435432434
-1.19289636611938 -1.26057362556458 3.98312520980835
-1.28286647796631 -1.31628227233887 3.40323853492737
0.433870643377304 1.40566074848175 6.17522525787354
-3.34226322174072 0.643027424812317 9.84455299377441
-4.45864629745483 0.485132128000259 10.0102138519287
-0.185336858034134 -0.00766811985522509 1.74489378929138
4.22272253036499 1.53718721866608 9.25783634185791
-4.00412082672119 -1.80013537406921 7.89805173873901
-1.92434251308441 1.02915048599243 5.59465074539185
-2.62826466560364 0.569053947925568 7.99563598632813
-2.70247650146484 0.546547710895538 7.67746782302856
-8.9221658706665 1.59227514266968 18.4304256439209
1.16283583641052 -0.0975992679595947 5.67735719680786
-1.36859083175659 -1.66432130336761 3.49243426322937
0.661577820777893 1.07593047618866 4.07454347610474
0.392271965742111 -0.180333778262138 3.42708373069763
1.07042598724365 -0.955474257469177 3.91985249519348
0.935613870620728 -0.171553716063499 12.8950366973877
0.619839072227478 -0.524208247661591 5.69124460220337
0.773887991905212 -0.249216184020042 3.29499077796936
0.581069886684418 -0.789151549339294 7.58665037155151
0.747427821159363 -0.262905985116959 3.21230387687683
0.756890058517456 -0.374434471130371 4.70552825927734
-3.02641916275024 -1.03987586498261 6.40173196792603
0.733485460281372 -0.222003892064095 4.88767528533936
0.642169415950775 -0.748541831970215 4.45668268203735
0.7132488489151 -0.93639999628067 3.33157873153687
0.991123080253601 -0.226331159472466 4.65170288085938
0.497570872306824 -1.62015521526337 2.81740283966064
0.471706748008728 -1.51982700824738 2.96046781539917
-2.26505851745605 -1.47686040401459 5.40142440795898
-4.14630556106567 -0.823875963687897 10.601336479187
-1.76915609836578 -1.60413610935211 4.36568546295166
-3.78418827056885 -1.44749593734741 5.9045090675354
-3.23582005500793 0.0251790713518858 6.64686489105225
-3.77833604812622 -1.32143974304199 5.75828742980957
-2.09876561164856 -1.5447381734848 5.30662155151367
-1.57714462280273 -1.49223649501801 4.239089012146
-1.72820329666138 -1.47683560848236 4.67408132553101
0.7782301902771 -0.764635264873505 3.32340383529663
1.03897166252136 -0.199838235974312 4.40318441390991
-5.45644760131836 -0.251287668943405 12.1899738311768
0.729406714439392 -0.910406291484833 4.41947507858276
1.20661902427673 0.0749606192111969 5.45283603668213
0.437897115945816 -0.501873314380646 5.86316967010498
-5.33955097198486 -1.179079413414 12.2733287811279
0.261943131685257 -0.244980335235596 1.9991283416748
0.239878281950951 -0.255957096815109 1.80168509483337
0.241840183734894 -0.29510697722435 1.95336556434631
1.04934978485107 0.211244896054268 5.24475193023682
1.53936457633972 0.912925243377686 9.1535758972168
0.855381369590759 -0.937316179275513 1.76827263832092
0.831969261169434 -0.746402502059937 1.66966557502747
0.641644835472107 -1.43661522865295 1.87081336975098
0.886266231536865 -0.933695316314697 1.79053425788879
0.85102367401123 -0.876607656478882 1.75005102157593
0.568916857242584 0.749821305274963 7.43469333648682
0.248268961906433 -1.15962731838226 1.80829071998596
0.579262137413025 -1.45694136619568 1.99958467483521
0.593744337558746 -1.37755942344666 1.74799776077271
0.636617422103882 -1.53568005561829 2.04415893554688
0.539453387260437 -1.42553782463074 1.80849075317383
0.592151522636414 -1.43906426429749 2.00965571403503
0.60787045955658 -1.54094862937927 1.87567925453186
0.603087782859802 -1.53939807415009 1.90786623954773
0.263725876808167 -1.31829512119293 1.84790945053101
0.957667350769043 -0.67799836397171 1.88543939590454
-4.68901062011719 1.04335987567902 10.0213441848755
0.267400473356247 -1.24873602390289 1.870197057724
1.04690444469452 -0.950166046619415 1.497971534729
0.0474627017974854 0.15167823433876 1.80079627037048
-4.96716356277466 -0.765543341636658 13.4956007003784
0.0467707067728043 0.0740138739347458 1.82817363739014
-0.0252963602542877 0.119111269712448 1.83237838745117
-0.0341362059116364 0.140091180801392 1.81996011734009
-0.319486886262894 -0.284989833831787 1.80103802680969
-4.10247325897217 -1.07712888717651 11.810998916626
-1.46542239189148 -1.50267195701599 4.14352512359619
-4.1653094291687 1.43902277946472 8.88238048553467
-0.301856249570847 -0.230915293097496 1.79263639450073
-0.277154475450516 -0.212627738714218 1.76351141929626
-3.53537392616272 1.01001143455505 9.88192272186279
-3.38958048820496 0.935005068778992 9.29641628265381
-3.44049215316772 1.3735876083374 8.81912231445313
-3.3255443572998 -3.68654799461365 8.99389266967773
-0.301266521215439 -1.10544514656067 1.73976540565491
-0.324180573225021 -1.16401147842407 1.80497479438782
-0.496284574270248 -1.40104711055756 1.78383827209473
-0.482301443815231 -1.43771195411682 1.78862357139587
-3.22205233573914 0.053340919315815 6.70456504821777
-0.356435328722 -1.34275734424591 1.8115816116333
-0.607139229774475 -1.41899192333221 1.95268797874451
-0.580016255378723 -1.42303788661957 1.92068076133728
-0.6191645860672 -1.44035172462463 1.78882217407227
-0.751350998878479 -1.5253894329071 1.98857188224792
-0.25947967171669 -1.1989232301712 1.71597480773926
-0.637907028198242 -1.46915364265442 1.91637802124023
-0.303045898675919 -1.27913856506348 1.77372241020203
-0.329933851957321 -1.24857449531555 1.86485695838928
0.195798262953758 -1.31911385059357 1.91398763656616
-5.52623319625854 1.5705099105835 11.0034847259521
0.268985003232956 -1.09058320522308 1.81680464744568
-0.0121641755104065 0.11652073264122 1.91686105728149
-0.480306833982468 -1.36906599998474 1.76479744911194
0.888779044151306 -0.578315436840057 1.86801052093506
2.58525013923645 1.35625982284546 5.86731910705566
2.17341446876526 0.989987075328827 6.02722501754761
-3.53141355514526 0.459662228822708 9.8020715713501
-0.000135242938995361 0.0409425497055054 1.8697350025177
-4.21829700469971 0.583137929439545 11.8640661239624
-3.14396047592163 1.68674778938293 7.84960317611694