0.0353065133094788 -0.731518387794495 0.516664862632751
1.71333932876587 -0.548271536827087 5.75375699996948
1.49703645706177 -0.619518160820007 5.23902225494385
0.0565189719200134 -0.26067116856575 0.834322094917297
1.52051854133606 -0.44427889585495 6.95035028457642
-0.0511546730995178 -0.721790373325348 0.621528506278992
-0.211750209331512 -0.740824580192566 0.864732265472412
-0.162567496299744 -0.73029488325119 0.467305094003677
-0.0444440245628357 -0.0724142640829086 0.422739297151566
-0.115483224391937 -0.155038952827454 0.96367609500885
9.21056079864502 0.657981097698212 7.69293165206909
14.3773202896118 0.368627369403839 9.73616981506348
6.35170888900757 0.0815168023109436 2.68598699569702
-0.0837441682815552 -0.202914103865623 0.422624617815018
9.19279384613037 -0.44036802649498 3.6788330078125
9.58130836486816 0.235775470733643 4.35974502563477
10.7303304672241 -0.278043538331985 4.85084867477417
8.94919204711914 -0.219552665948868 4.43971109390259
9.84953784942627 -0.473022550344467 4.85139799118042
-0.05600905418396 -0.720235884189606 -0.0918264389038086
0.328861653804779 -0.721985399723053 0.490978389978409
11.3852262496948 0.981193244457245 10.2643747329712
-0.0550409555435181 -0.293092548847198 0.387514621019363
0.0668756365776062 -0.721924960613251 0.575245976448059
0.0249342322349548 -0.013393085449934 0.450139313936234
-0.194297611713409 -0.717243015766144 0.326772093772888
-0.0853155851364136 -0.433987140655518 0.741972923278809
-0.0671152472496033 -0.249089390039444 0.836753129959106
-0.0647040605545044 -0.156571432948112 0.877431392669678
1.75718951225281 0.179580017924309 4.17800521850586
1.35182476043701 0.531086564064026 5.34755659103394
3.69608926773071 0.135709539055824 1.13585722446442
9.71495056152344 -0.241463989019394 3.38539958000183
9.50102043151855 -0.451458752155304 3.85425162315369
7.63112115859985 -0.162952154874802 3.52140688896179
0.0784569978713989 -0.720635652542114 0.618966221809387
8.44771194458008 -0.150142267346382 3.38998937606812
9.67359924316406 0.122516736388206 3.09310412406921
7.46305894851685 -0.323467612266541 2.73899388313293
1.31518864631653 0.706874012947083 5.2025260925293
1.67604494094849 0.238084375858307 4.45740604400635
2.56237769126892 0.722360193729401 5.39285326004028
-0.124298334121704 -0.224520891904831 0.401310056447983
-0.0718303918838501 -0.0355344079434872 0.443728357553482
1.75812864303589 0.681606471538544 4.79480504989624
1.83273410797119 -0.0373327173292637 3.98673319816589
-0.0167931318283081 -0.110629200935364 0.988765358924866
-0.236118346452713 -0.722339928150177 0.332142651081085
-0.0954903364181519 -0.25057190656662 0.400923043489456
1.63593053817749 -0.203819185495377 3.76519560813904
-0.103183448314667 -0.716196894645691 0.441982179880142
1.41725993156433 0.674472510814667 5.11916160583496
1.59931039810181 0.365029603242874 4.16675281524658
10.5708589553833 0.0967978686094284 4.01181888580322
1.48652648925781 0.647577404975891 4.6815013885498
1.48312950134277 0.659705519676209 4.85916566848755
9.7783260345459 0.811712265014648 7.89225006103516
-0.0110912919044495 -0.201456770300865 0.385683566331863
9.57476329803467 0.426085621118546 3.63321566581726
2.54038047790527 -0.372636079788208 6.92205142974854
1.84544229507446 -0.268950313329697 3.46144080162048
5.66462373733521 0.611562550067902 5.75134038925171
1.73029208183289 0.61772495508194 5.24461364746094
0.00272691249847412 -0.197230860590935 0.387286692857742
8.42581176757813 0.923899352550507 4.94657516479492
-0.122888505458832 -0.230349242687225 0.95953106880188
1.97243213653564 0.63495135307312 5.25689458847046
9.28360271453857 0.566885471343994 3.15355753898621
-0.0906529426574707 -0.131776839494705 0.936002969741821
-0.00761139392852783 -0.294613689184189 0.381456166505814
2.74132180213928 -0.435431867837906 6.52426862716675
-0.0235196352005005 -0.0741186738014221 0.336402326822281
0.860643804073334 -0.697481215000153 0.349022835493088
8.4462423324585 -0.200614914298058 3.47130441665649
0.0280565023422241 -0.0708740502595901 0.354131907224655
0.317911207675934 -0.712616860866547 -0.0181455463171005
-0.182632148265839 -0.716322302818298 -0.0345352441072464
3.47110605239868 1.00776791572571 7.55774450302124
0.0575273633003235 -0.136427462100983 0.903826475143433
-0.222568273544312 -0.723421931266785 0.976210951805115
3.93760824203491 1.49924862384796 7.46514225006104
2.60011386871338 0.677907645702362 5.35925531387329
4.9865870475769 1.60916614532471 9.15804100036621
1.46411824226379 1.18632709980011 5.57880640029907
2.40747451782227 0.586954653263092 5.37997722625732
2.27367305755615 1.26320195198059 5.9885368347168
-0.0504697561264038 -0.632154226303101 0.715507030487061
-0.17488557100296 -0.735584378242493 0.853447079658508
-0.102781891822815 -0.727803766727448 0.877007722854614
-0.226376354694366 -0.718471169471741 1.42244744300842
-0.205540776252747 -0.70798271894455 0.433139711618423
13.231499671936 1.64290356636047 9.77339839935303
3.32897472381592 1.23161041736603 7.27815866470337
-0.126715183258057 -0.167136028409004 0.90379810333252
6.40496635437012 1.19326651096344 3.32568264007568
2.08244657516479 0.0593059360980988 6.6957049369812
4.17937135696411 1.60330164432526 9.24916839599609
14.8849258422852 1.01962947845459 10.5180225372314
9.31527137756348 -0.319202303886414 6.50475263595581
3.39462852478027 1.55037462711334 7.41458177566528
6.8281364440918 0.0271475315093994 2.75643706321716
-0.324218451976776 -0.719284415245056 0.119403123855591
2.15041613578796 1.24797749519348 5.94195318222046
2.00136542320251 0.601985692977905 5.22305250167847
11.6634960174561 1.02684259414673 9.36090850830078
7.70465040206909 1.63529372215271 7.77599143981934
1.76499938964844 0.154038116335869 6.99751424789429
2.61141014099121 -0.62724643945694 6.40402364730835
9.65553569793701 -0.0161580480635166 6.37869739532471
-0.160439431667328 -0.698645353317261 -0.119471274316311
0.0703784227371216 -0.214173316955566 0.400274306535721
8.89260959625244 1.8161848783493 2.94087934494019
1.45990133285522 -0.534884035587311 5.66912746429443
-0.105440020561218 -0.380125910043716 0.925159692764282
12.8514957427979 3.98930954933167 8.97689437866211
12.7295160293579 3.66518139839172 8.11188983917236
11.4255657196045 2.52002310752869 8.18674087524414
11.1700582504272 2.56036400794983 6.38332080841064
8.75472640991211 0.301071912050247 1.93794405460358
9.6348991394043 -0.229617774486542 2.79657316207886
9.26808643341064 2.59933495521545 8.66220188140869
10.2432298660278 3.33011651039124 8.67311000823975
12.0620470046997 2.64205551147461 8.30733013153076
9.96093654632568 -0.240673542022705 2.31104278564453
0.215857446193695 -0.0949608236551285 0.982577323913574
10.5189943313599 3.19455027580261 8.87995052337646
12.9952726364136 3.45663666725159 10.1291561126709
9.4616231918335 3.4077296257019 8.69120788574219
9.95016002655029 3.35477161407471 7.70678472518921
8.2969388961792 1.87583208084106 6.08862733840942
0.0717518925666809 -0.0634747743606567 0.420493811368942
9.36071968078613 -0.431659579277039 2.37977695465088
12.5183458328247 3.07978844642639 8.41994190216064
9.25758838653564 1.10429251194 2.90204381942749
8.84069156646729 -0.422127097845078 4.29559564590454
0.0973032712936401 -0.716617703437805 0.524524092674255
7.31745958328247 1.08455967903137 2.38439655303955
8.80424785614014 0.245533928275108 2.04584527015686
-0.171820461750031 -0.717635869979858 0.0509192943572998
0.342767536640167 -0.720194280147552 0.396187037229538
0.321697175502777 -0.719636797904968 0.631230115890503
0.812282025814056 -0.722866177558899 0.650610446929932
0.996461927890778 -0.715153157711029 0.383164256811142
0.817491114139557 -0.737821221351624 0.668982267379761
0.308749854564667 -0.703111469745636 -0.0305732041597366
0.789984881877899 -0.728058159351349 0.440245598554611
-0.0835356712341309 -0.26545113325119 0.820158123970032
0.0196764469146729 -0.723290085792542 0.378462225198746
-0.145200610160828 -0.705474972724915 -0.0264080762863159
10.0003223419189 0.219656184315681 9.81713962554932
7.07773447036743 2.19725823402405 7.20997524261475
2.32919788360596 0.815543174743652 5.05590391159058
1.45682954788208 1.29917919635773 5.07299852371216
8.41490459442139 2.47619962692261 8.11778926849365
1.1841881275177 0.781810760498047 4.85315465927124
-0.0489233732223511 -0.25818657875061 0.673442125320435
-0.0307484269142151 0.0228733532130718 0.497248023748398
-0.174972236156464 -0.723214089870453 0.353309065103531
15.9103498458862 3.76637363433838 15.58420753479
4.14223623275757 1.38252413272858 7.67369174957275
2.09439325332642 0.967311859130859 5.1297435760498
2.00956749916077 1.41478180885315 5.31964302062988
2.71716809272766 1.36709856987 5.66382789611816
9.93045997619629 2.5459303855896 9.45165061950684
6.72718238830566 2.30745840072632 7.00039625167847
1.88427495956421 1.27039754390717 4.40869188308716
5.59476375579834 2.0001802444458 5.49950218200684
-0.0712099671363831 -0.69026118516922 0.651527047157288
-0.186358213424683 -0.7315993309021 0.90692150592804
-0.000786185264587402 -0.692456245422363 0.640104055404663
-0.0708816051483154 -0.660855054855347 0.707320213317871
-0.0833389759063721 -0.718078017234802 0.696822643280029
-0.141417682170868 -0.494455248117447 0.671547770500183
-0.0300654768943787 -0.736197471618652 0.61027204990387
-0.0910219550132751 -0.383952647447586 0.510191917419434
0.0192254781723022 -0.7430699467659 1.09879660606384
-0.173094749450684 -0.730483651161194 0.402961641550064
-0.0878575444221497 -0.407080918550491 0.587737917900085
-0.379415363073349 -0.71716034412384 0.182224482297897
-0.0976420640945435 -0.363002926111221 0.922960996627808
15.8135976791382 0.69153368473053 11.1011562347412
0.870327889919281 -0.753210425376892 0.430996030569077
-0.0835469961166382 -0.753922164440155 0.375095456838608
-0.0938785076141357 -0.180665165185928 0.467329472303391
0.0355685949325562 -0.233162343502045 0.818730473518372
7.56334066390991 0.00607508979737759 3.26034736633301
-0.189246833324432 -0.772427558898926 1.89887702465057
-0.137429654598236 -0.71743243932724 1.45859360694885
8.65123653411865 -0.115071326494217 1.92140114307404
10.6703767776489 3.1843945980072 8.66751003265381
2.47659254074097 -0.430785298347473 6.58277416229248
2.3755521774292 1.35519409179688 5.27130126953125
0.0556856989860535 -0.0612502358853817 0.39555224776268
8.62998867034912 0.823225915431976 2.41661334037781
0.0870698094367981 -0.68496561050415 0.613587379455566
10.0957136154175 2.52196002006531 9.24697303771973
-0.485079914331436 -0.733254134654999 0.392335265874863
9.60080909729004 -0.434795051813126 2.9022364616394
2.13998651504517 1.28106713294983 5.59121322631836
0.10614800453186 -0.716581106185913 0.64403760433197
-0.210772097110748 -0.718913912773132 1.0089339017868
-0.0337830185890198 -0.083869680762291 0.373131901025772
4.30747079849243 0.938260912895203 2.13924241065979
10.6923942565918 2.05553793907166 4.83552360534668
5.69452238082886 1.84884464740753 3.63672184944153
2.19669318199158 1.29128670692444 5.52378606796265
8.7363224029541 -0.405622541904449 1.92692744731903
6.62951469421387 1.08305513858795 2.26604127883911
19.703441619873 5.8764476776123 15.1304540634155
8.24433422088623 1.83296465873718 4.10069227218628
12.4397325515747 3.05000376701355 10.2669591903687
9.11757659912109 2.21227264404297 6.90790128707886
-0.132639527320862 -0.375594168901443 0.922981262207031
8.88946437835693 1.60278916358948 2.75645446777344
9.95589542388916 -0.615610063076019 2.05419945716858
15.4440774917603 4.69304037094116 11.4052677154541
4.48501443862915 1.44686925411224 2.31051802635193
10.5288944244385 0.637960016727448 3.09360957145691
9.31050586700439 2.13877892494202 8.74467086791992
10.5425367355347 -0.263023257255554 3.25413703918457
11.0392789840698 0.359570413827896 2.86719369888306
2.76992392539978 1.63870310783386 8.27670192718506
2.98470401763916 1.45329105854034 6.9375433921814
0.0828975439071655 -0.243872463703156 0.40620020031929
0.85115259885788 -0.707906365394592 0.369114845991135
1.1693902015686 0.627352476119995 5.03514909744263
9.9566707611084 1.14861762523651 2.84822535514832
-0.11976557970047 -0.187288269400597 0.916845798492432
13.0961170196533 3.61572432518005 8.15452194213867
13.7375192642212 4.06520223617554 9.80557823181152
9.46294975280762 0.0285693872720003 3.50538921356201
1.58289170265198 -0.413441061973572 6.50015926361084
2.0300178527832 -0.190111950039864 7.77381801605225
11.4636964797974 0.392565995454788 2.75503134727478
1.52723670005798 1.23630714416504 5.06394958496094
0.348267495632172 -0.71015340089798 0.418202668428421
37.5324020385742 8.85511779785156 30.015438079834
1.7360897064209 0.512435019016266 5.09801530838013
1.81111931800842 1.39871764183044 5.37792015075684
11.2616033554077 -0.312193185091019 2.77545857429504
9.36178588867188 1.05041944980621 2.51983404159546
11.3754558563232 2.58235549926758 6.73297691345215
1.62694191932678 1.35821402072906 5.13273477554321
6.73918294906616 1.02307546138763 2.41558289527893
4.32231426239014 1.87004578113556 5.13186264038086
-0.130411446094513 -0.215188473463058 0.970633983612061
1.66956639289856 0.0140063110738993 4.14324188232422
7.48455381393433 1.70620512962341 2.47883796691895
0.487431824207306 0.572680771350861 1.81696319580078
9.77560710906982 0.36747869849205 4.70169067382813
8.62562084197998 1.76116967201233 6.36093997955322
12.6870965957642 0.283894449472427 8.81407451629639
6.91156578063965 1.86718654632568 2.79193735122681
9.53794193267822 2.92617559432983 6.3630895614624
-0.0880980491638184 -0.321185410022736 0.602219223976135
-0.028525710105896 -0.080242857336998 0.354207128286362
0.026110827922821 -0.167021170258522 0.360700994729996
2.37457942962646 0.387042999267578 8.06583690643311
11.1986522674561 0.88141143321991 7.31502866744995
17.8711032867432 4.49338674545288 10.6764335632324
12.9397640228271 2.95521831512451 9.97157096862793
7.21435022354126 1.8435777425766 3.06300711631775
10.9599008560181 0.709651231765747 2.72573828697205
17.7400512695313 4.0020318031311 11.6123657226563
0.013907790184021 0.00304736010730267 0.514296650886536
11.4304370880127 -0.158859178423882 2.09522843360901
9.45405292510986 -0.342274129390717 1.7211617231369
9.01821613311768 -0.212755411863327 1.7362779378891
-0.073358952999115 -0.0602083094418049 0.486172765493393
8.75908660888672 0.241961255669594 1.85362279415131
9.35151195526123 -0.479240983724594 6.41700506210327
9.70597362518311 -0.431575000286102 1.93904078006744
9.04955005645752 0.304235637187958 1.65000712871552
-0.161759495735168 -0.725692331790924 -0.09352657943964
0.861073791980743 -0.723050832748413 0.408474236726761
1.11625504493713 -0.728846073150635 0.426246374845505
1.28633427619934 -0.712963461875916 0.416974812746048
-0.148141801357269 -0.714414536952972 -0.139249414205551
-0.327623218297958 -0.711548864841461 0.115102827548981
-0.00382900238037109 -0.721933484077454 0.549280643463135
-0.146751642227173 -0.693624973297119 -0.0573396608233452
0.840369045734406 -0.708299517631531 0.703598380088806
1.79236388206482 -0.422745525836945 6.54436254501343
-0.0460368394851685 -0.121060505509377 0.924359083175659
-0.0508263111114502 -0.00428562611341476 0.452487379312515
-0.0546962022781372 -0.0829451382160187 0.47784635424614
-0.0412315726280212 -0.635567009449005 0.70155930519104
-0.404483586549759 -0.735063850879669 0.904687643051147
-0.194351732730865 -0.711735725402832 1.35935628414154
-0.187620878219604 -0.724180698394775 1.85171687602997
0.0230172872543335 -0.260682910680771 0.826102137565613
-0.126034617424011 -0.719847440719604 0.382746964693069
-0.14524233341217 -0.710861563682556 1.35587918758392
-0.0301385521888733 -0.141800373792648 0.996044635772705
15.184549331665 1.92526578903198 14.5944242477417
-0.184731662273407 -0.697870373725891 1.87520229816437
-0.167957961559296 -0.0512532778084278 0.536393165588379
10.1637706756592 -0.460799604654312 3.05303263664246
-0.00507575273513794 -0.124919652938843 0.887809872627258
-0.0968108177185059 -0.417725771665573 0.693052768707275
-0.0276630520820618 0.00572006963193417 0.50747287273407
-0.0036199688911438 -0.114344328641891 0.345732480287552
-0.189747452735901 -0.716963469982147 0.458794504404068
-0.175984621047974 -0.725917637348175 0.815571665763855
-0.0311333537101746 0.0108659826219082 0.48317101597786
-0.203199744224548 -0.722075879573822 0.801398992538452
-0.138021767139435 -0.770988762378693 0.988409399986267
0.0292896032333374 -0.716992199420929 1.11037266254425
12.1779861450195 -0.431162714958191 4.79521560668945
9.67094802856445 -0.475295156240463 2.77254867553711
12.1659030914307 1.83286833763123 3.64815187454224
4.12772369384766 0.8218013048172 1.44937968254089
-0.162199020385742 -0.712970912456512 -0.113360643386841
7.68439817428589 0.758429884910584 3.20679473876953
14.145938873291 3.58200645446777 3.88345265388489
7.54945611953735 0.316513180732727 2.58615970611572
-0.132474660873413 -0.358290761709213 0.942368865013123
12.2449827194214 1.94765961170197 4.63201189041138
5.73362731933594 1.11563336849213 3.33350682258606
8.91343021392822 0.939228117465973 6.40323495864868
10.3554067611694 0.421109676361084 6.69733238220215
1.81321740150452 -0.702528238296509 0.42245164513588
0.0606345534324646 -0.726899445056915 0.553529381752014
-0.00709450244903564 -0.000884998589754105 0.449149459600449
-0.00653755664825439 -0.71878719329834 0.59477972984314
-0.0643368363380432 -0.0367678813636303 0.436103731393814
-0.195216774940491 -0.716774702072144 0.288788259029388
-0.102572798728943 -0.218495279550552 0.542044043540955
2.41353154182434 -0.0312526933848858 7.3286452293396
2.13499569892883 -0.393684297800064 6.63978862762451
-0.0340655446052551 -0.725734412670136 0.645095944404602
-0.184903085231781 -0.725915312767029 1.37883675098419
-0.161613881587982 -0.727856576442719 0.402469426393509
-0.207607507705688 -0.721881926059723 -0.098288469016552
-0.0627430081367493 -0.16576761007309 0.44685086607933
0.0266450643539429 -0.721625924110413 0.528035640716553
-0.106532871723175 -0.725003719329834 -0.0996743366122246
0.0711997151374817 -0.724315822124481 0.491915792226791
-0.0503456592559814 -0.255045562982559 0.709543466567993
-0.146622657775879 -0.730638921260834 0.630295753479004
-0.0662292242050171 -0.0730018764734268 0.471593886613846
-0.0678879022598267 -0.150830119848251 0.881327986717224
0.356959044933319 -0.715572357177734 0.374659866094589
-0.0727854371070862 -0.262225836515427 0.802383422851563
1.50128698348999 0.442463934421539 5.2523365020752
-0.180820226669312 -0.714913427829742 -0.0681068003177643
-0.0745066404342651 -0.253704190254211 0.628800511360168
-0.115446627140045 -0.332625031471252 0.473609298467636
0.00552171468734741 -0.161605432629585 0.354315489530563
-0.203602135181427 -0.721818089485168 1.87650001049042
-0.148917138576508 -0.727249622344971 1.4548704624176
-0.0645266175270081 -0.115526959300041 0.458549290895462
0.0698616504669189 -0.295156240463257 0.362314254045486
-0.0121954083442688 -0.718050479888916 0.593081712722778
0.849541962146759 -0.729657053947449 0.416326016187668
-0.0806864500045776 -0.0545576177537441 0.531728267669678
1.27953863143921 -0.577675819396973 6.18660449981689
-0.0958995223045349 -0.175486028194427 0.880582928657532
-0.0513615608215332 -0.692414939403534 0.780659794807434
-0.155476808547974 -0.721124887466431 0.616221189498901
-0.211178362369537 -0.71964567899704 0.317889362573624
9.90248870849609 0.312912344932556 7.169762134552
-0.0582213401794434 -0.159311965107918 0.406245738267899
13.6684055328369 0.539202570915222 10.1741304397583
9.95298385620117 0.167949631810188 7.3616771697998
-0.0994035005569458 -0.167111128568649 0.504881381988525
0.00898325443267822 -0.0220993235707283 0.437868267297745
-0.0172946453094482 -0.221527487039566 0.384018808603287
16.3164501190186 0.991540193557739 11.0396242141724
10.5504751205444 -0.540547907352448 6.46763944625854
0.330705940723419 -0.720306634902954 -0.0488920509815216
0.819675624370575 -0.71869820356369 0.354391664266586
1.50703620910645 0.484809815883636 5.75735425949097
-0.0933739542961121 -0.162467405200005 0.536255598068237
-0.131562829017639 -0.389086246490479 0.474447458982468
-0.122293889522552 -0.327348977327347 0.445022314786911
-0.206808924674988 -0.722526609897614 0.863191723823547
-0.181573212146759 -0.715807139873505 0.891671061515808
-0.00621110200881958 0.00104125216603279 0.451371282339096
2.52135419845581 -0.251829028129578 6.68299007415771
2.50560879707336 -0.221300363540649 7.08220672607422
-0.0362609028816223 -0.257182717323303 0.393723398447037
-0.0661289691925049 -0.047732274979353 0.432886749505997
9.2337646484375 -0.43216210603714 5.38938474655151
13.1009502410889 0.877965748310089 8.60941314697266
0.30986100435257 -0.710259735584259 0.439718872308731
0.308373153209686 -0.715739786624908 -0.0946882590651512
-0.129651606082916 -0.215359419584274 0.905598402023315
-0.126205861568451 -0.180105894804001 0.947305202484131