-0.108708553016186 -0.32772833108902 0.757546126842499
-0.185296028852463 -0.258211135864258 0.780121207237244
-2.42473578453064 -0.598106920719147 4.09216690063477
-4.90293836593628 0.54143226146698 7.26589870452881
0.492765307426453 -0.283648461103439 0.990200161933899
0.317236542701721 -0.547983169555664 0.955571889877319
-0.0162828788161278 -0.534612357616425 0.787778615951538
-0.095350407063961 -0.491380512714386 0.737232863903046
-0.25259530544281 -0.626407265663147 0.853830456733704
-3.2903950214386 1.96824979782104 5.66985130310059
-3.87829184532166 1.99026894569397 5.71862602233887
-4.83443069458008 1.48039579391479 6.69692611694336
-3.84114766120911 0.149292424321175 5.46652698516846
0.0853839665651321 -0.440680325031281 0.757172346115112
-6.02300405502319 0.440692812204361 8.58707046508789
-5.20277166366577 1.47329163551331 7.75451850891113
-3.58877897262573 0.347855865955353 4.46215057373047
-4.57776880264282 1.78456783294678 6.82050800323486
0.110018670558929 -0.367847561836243 0.756156861782074
0.00828704982995987 -0.276045113801956 0.913046717643738
-2.68498849868774 0.478033661842346 4.67471790313721
-3.28645801544189 1.17646300792694 5.28342437744141
-3.50343751907349 0.344048172235489 4.64447212219238
0.0367915481328964 -0.422698140144348 0.751537978649139
0.0565667152404785 -0.438786417245865 0.753955841064453
0.0200891494750977 -0.297629773616791 0.829458296298981
-2.21352601051331 0.439672827720642 4.38946151733398
-2.04383111000061 0.234629437327385 3.27409720420837
-3.99691009521484 2.2165732383728 6.83077716827393
-2.55817246437073 -0.0122168762609363 3.76640105247498
0.489520192146301 -0.298620641231537 0.980108380317688
0.180922269821167 -0.596188724040985 0.934528470039368
-0.267891705036163 -0.618983685970306 0.857414484024048
-0.291168749332428 -0.610875070095062 0.879122257232666
-2.48336815834045 0.425878554582596 4.01149845123291
0.0847156867384911 -0.27447584271431 0.838982403278351
0.711039960384369 -0.578595399856567 1.06003415584564
0.312257051467896 -0.552916049957275 0.925798654556274
0.269209235906601 -0.577886283397675 0.947175621986389
0.210963279008865 -0.31557023525238 0.920888900756836
0.141434505581856 -0.237745270133018 0.833212018013
0.109896659851074 -0.437233924865723 0.766767919063568
0.171160608530045 -0.542955935001373 0.928831577301025
0.0700286775827408 -0.243713721632957 0.853438973426819
-0.00671397149562836 -0.599087119102478 0.76907879114151
-0.0879711285233498 -0.319631963968277 0.894213795661926
0.0415348038077354 -0.287227660417557 0.812291979789734
-0.0637405887246132 -0.488489866256714 0.747927248477936
0.18653929233551 -0.547681629657745 0.958501696586609
-0.104362510144711 -0.215602278709412 0.784960150718689
-0.103858299553394 -0.247123137116432 0.71373325586319
-0.115075640380383 -0.462364375591278 0.727792739868164
-0.0728703662753105 -0.212687805294991 0.796382129192352
-0.193055599927902 -0.249807611107826 0.870619654655457
-0.181794315576553 -0.577728986740112 0.737938284873962
-0.223607987165451 -0.325652003288269 0.830923795700073
-0.129003822803497 -0.491933405399323 0.724882245063782
-0.139707654714584 -0.358581393957138 0.711636781692505
-0.156341910362244 -0.413218885660172 0.744832336902618
-0.150336116552353 -0.362272500991821 0.688338160514832
-0.21710404753685 -0.263812303543091 0.927851915359497
-0.230730980634689 -0.426863670349121 0.814090371131897
-0.276671051979065 -0.51900577545166 0.867605447769165
-0.330090641975403 -0.598095059394836 0.883302330970764
-1.48876678943634 -0.103738605976105 2.68476009368896
-2.30226063728333 -0.0259216241538525 3.76621866226196
-1.4023072719574 -0.655757427215576 2.01055383682251
-2.52338790893555 0.519457638263702 3.93568682670593
-2.32487440109253 -0.489740014076233 3.49550890922546
-6.08041715621948 1.09972977638245 9.21171760559082
-3.55141186714172 1.87638437747955 6.45468902587891
-1.80236327648163 0.240173101425171 2.6285126209259
-3.81172943115234 -0.251893550157547 5.3405122756958
-4.78705501556396 -0.708110809326172 6.46805858612061
-4.4478325843811 2.22899127006531 7.55910301208496
-3.94974899291992 1.92103612422943 5.90033435821533
-5.21113729476929 2.0115270614624 7.65012741088867
-4.91767930984497 1.67790961265564 8.15501022338867
-2.80750322341919 0.457800388336182 4.44768142700195
0.591308236122131 -0.599663317203522 0.995979189872742
-3.3946430683136 2.09955668449402 5.00788688659668
-6.92446851730347 4.0177116394043 9.97861194610596
-3.70444297790527 2.18076348304749 5.19897174835205
-4.18700742721558 2.31667828559875 5.71377849578857
0.278084248304367 -0.521912336349487 0.933948755264282
0.127875372767448 -0.462568193674088 0.781766593456268
0.113324165344238 -0.264300793409348 0.831885933876038
0.117672622203827 -0.468376040458679 0.770141661167145
-0.0690174475312233 -0.418952435255051 0.783792316913605
-0.0808253064751625 -0.478133738040924 0.731628656387329
-0.088709332048893 -0.402131706476212 0.737750709056854
-0.111202366650105 -0.402091830968857 0.723374545574188
-0.0638761594891548 -0.270867735147476 0.791520893573761
-0.125406503677368 -0.455557942390442 0.734320461750031
-0.469153761863709 -0.611376106739044 1.10531556606293
-2.31338953971863 0.474959075450897 5.11452770233154
-0.0183641314506531 -0.561133503913879 0.809719741344452
0.0898595675826073 -0.274869352579117 0.817764580249786
0.155543625354767 -0.551377296447754 0.917847752571106
-5.98356819152832 -0.464234858751297 8.62384510040283
0.328578591346741 -0.593802392482758 0.961472392082214
0.052307266741991 -0.305270940065384 0.811452686786652
0.0685650780797005 -0.368567019701004 0.760957062244415
0.0973509699106216 -0.351466417312622 0.795101761817932
-0.129366338253021 -0.338992655277252 0.728854596614838
0.105260603129864 -0.41034671664238 0.754695534706116
0.0389169454574585 -0.397671759128571 0.751690983772278
-0.151519119739532 -0.422813951969147 0.737856030464172
0.0167440995573998 -0.401708036661148 0.784172415733337
-0.114391647279263 -0.376179784536362 0.722413659095764
-0.34397292137146 -0.6134272813797 0.878996610641479
-0.339002370834351 -0.569383323192596 0.859977841377258
-2.16962718963623 0.401629894971848 4.35983943939209
-2.38523101806641 0.546674311161041 3.92961239814758
-2.72887921333313 0.260852992534637 4.18944263458252
-3.37518620491028 -0.619259357452393 4.66454887390137
-0.504220366477966 -0.626256048679352 0.339757084846497
0.0487219281494617 -0.392159074544907 0.747232794761658
0.0333328321576118 -0.376047909259796 0.766249656677246
-0.0770382955670357 -0.360594540834427 0.74628084897995
-0.277420938014984 -0.519759058952332 0.873384118080139
-0.34374675154686 -0.487193703651428 0.862437009811401
-2.1798689365387 -0.138367012143135 3.70205116271973
-0.0803408399224281 -0.211958542466164 0.795698821544647
-0.134610235691071 -0.23043754696846 0.799897432327271
-2.20524454116821 0.267532229423523 5.02815055847168
-2.59946060180664 0.268054187297821 5.79533576965332
-0.0409302189946175 -0.374352127313614 0.905125617980957
-0.0798073932528496 -0.45130118727684 0.755109131336212
0.637358903884888 -0.514263212680817 0.976970791816711
-0.102179832756519 -0.365735352039337 0.739037394523621
0.01724673807621 -0.486256808042526 0.786774575710297
0.492379397153854 -0.269066721200943 0.983881115913391
-0.103305153548718 -0.288721531629562 0.777774631977081
-0.323231011629105 -0.458931028842926 0.846585988998413
0.685233414173126 -0.572157025337219 1.00479459762573
0.10981523245573 -0.388286799192429 0.751992642879486
0.0608803629875183 -0.272713392972946 0.828699886798859
-2.12964868545532 -0.344655722379684 3.41835951805115
-0.0281577557325363 -0.316709369421005 0.92082691192627
-2.33261132240295 0.576184689998627 4.93541717529297
-0.129856258630753 -0.256712198257446 0.763306796550751
-2.27190756797791 0.458456873893738 4.11139965057373
-2.49660778045654 0.487547010183334 4.21089649200439
0.298559367656708 -0.573759317398071 0.949431896209717
0.244842827320099 -0.387327909469604 0.929741144180298
-0.0931009724736214 -0.347918808460236 0.748396456241608
-2.57503128051758 0.501999020576477 5.81145191192627
-2.28447365760803 -0.434271156787872 3.68914580345154
-2.27315735816956 -0.226036116480827 3.61780524253845
-2.21118760108948 0.101979285478592 3.60182952880859
-2.4415009021759 -0.630510926246643 3.66698527336121
-0.164205342531204 -0.253434926271439 0.774434268474579
-6.02428722381592 2.13360023498535 9.44004440307617
-2.16570639610291 0.256795704364777 3.5376923084259
-2.24578261375427 -0.104050129652023 3.45659613609314
-4.13014888763428 1.403071641922 6.2818489074707
-3.63909363746643 1.06004905700684 6.19775104522705
-5.55962610244751 0.794110894203186 7.95889854431152
-3.7540123462677 0.255284011363983 5.17158031463623
-2.58748555183411 0.612746894359589 4.21130180358887
-3.62697124481201 1.26656568050385 5.33123683929443
-2.45868420600891 0.712936520576477 3.99411273002625
-0.117281936109066 -0.224483847618103 0.780635237693787
-5.04829216003418 -0.309353679418564 7.27517509460449
0.16873374581337 -0.646356582641602 0.948570966720581
-0.150333493947983 -0.228600919246674 0.804019093513489
-0.221764236688614 -0.427131086587906 0.795737206935883
-0.343464434146881 -0.532389104366302 0.863556146621704
-3.10524868965149 1.9922114610672 6.51140880584717
-0.33709180355072 -0.606494963169098 0.926990985870361
-3.00399351119995 0.992053687572479 5.29686260223389
-4.32233476638794 2.14076519012451 7.00168132781982
-4.31351947784424 2.14717960357666 6.71105098724365