0.0721562057733536 -0.167660653591156 0.461635529994965
0.0615907311439514 -0.160576999187469 0.438826739788055
0.155103132128716 -0.0414880514144897 0.541852056980133
-1.31575787067413 1.16575491428375 5.20001029968262
-3.33885622024536 -0.176852285861969 5.91735410690308
2.1566686630249 1.23267102241516 5.82058620452881
1.91276204586029 0.703610837459564 5.02799654006958
1.8800253868103 1.45379066467285 5.66217374801636
-3.27044606208801 -0.563423693180084 5.85176134109497
-4.98183917999268 -0.405188858509064 7.54170656204224
-2.38454532623291 0.659602403640747 4.37594795227051
-0.937905132770538 1.22999441623688 4.62270975112915
0.0411094948649406 -0.153602376580238 0.377421200275421
0.0283948071300983 -0.0807334184646606 0.34542316198349
-2.50733089447021 0.965714991092682 5.06089067459106
-0.557045042514801 1.25647449493408 5.56638956069946
1.43008291721344 1.56094551086426 5.27113819122314
1.62370371818542 1.49282586574554 6.08316040039063
0.190143451094627 1.48160660266876 5.74472665786743
0.166819095611572 1.47408318519592 5.59171199798584
2.00061702728271 1.43831527233124 6.83692693710327
2.07669281959534 1.31951415538788 4.55041170120239
2.28877973556519 1.5893759727478 5.05782318115234
0.0959762334823608 -0.390141129493713 0.414497554302216
-0.182998582720757 -0.704166114330292 0.27586567401886
0.0913325622677803 -0.294847518205643 0.371903419494629
-0.715688228607178 1.50605070590973 5.12326335906982
-0.418517231941223 0.903763473033905 3.38308572769165
-0.064539834856987 -0.497540950775146 0.545769870281219
1.4684476852417 0.67745453119278 7.52574777603149
0.335650146007538 -0.710341691970825 0.389435112476349
-1.3530855178833 0.80046558380127 7.22981071472168
-0.472911149263382 0.639761865139008 4.06039476394653
-2.65987372398376 0.976650893688202 7.21840476989746
-0.593208134174347 1.47406899929047 5.22213506698608
-0.16646035015583 -0.706818521022797 0.384956061840057
0.694020986557007 1.81254470348358 5.81970024108887
-1.25606143474579 1.75581657886505 5.22461128234863
3.33606290817261 2.60904383659363 7.6653037071228
0.947533011436462 2.27466988563538 6.80949783325195
0.452791750431061 1.13041400909424 5.16728162765503
-3.22100877761841 1.16139256954193 4.99724340438843
-1.01713824272156 1.71067416667938 5.78242444992065
-6.14912843704224 -0.617227077484131 8.41257667541504
-0.64860987663269 1.48806524276733 4.58847522735596
-0.541630148887634 1.42865633964539 4.42272424697876
0.0295664705336094 -0.00702914968132973 0.449375331401825
-5.54358577728271 -0.420439690351486 7.76824712753296
0.0408841483294964 1.39545464515686 5.38919019699097
-5.83992719650269 -0.0363768711686134 8.23672199249268
1.31612575054169 -0.207634285092354 3.17863583564758
-1.52497160434723 1.52851450443268 4.83160448074341
-1.07033574581146 1.4890683889389 4.7548508644104
1.69511377811432 1.08883357048035 4.64295291900635
-0.475895434617996 1.41286087036133 5.52516460418701
-3.81968784332275 -0.145602747797966 5.86712551116943
0.0611210241913795 -0.0526276119053364 0.451034724712372
0.0821524113416672 -0.164292275905609 0.44501143693924
0.0317336022853851 -0.607804715633392 0.711145579814911
0.329378038644791 -0.702022194862366 -0.098704993724823
0.753286063671112 -0.670166552066803 0.824250876903534
0.351813346147537 -0.740296959877014 0.42979484796524
-0.0743398070335388 -0.707294821739197 -0.101891100406647
-0.17033913731575 -0.70929080247879 0.870817959308624
-0.0078207366168499 -0.508925378322601 0.586074411869049
-16.4552879333496 -0.351813852787018 29.428581237793
0.074561320245266 -0.209478378295898 0.387392163276672
-0.200520440936089 -0.709546029567719 0.303430795669556
0.0768828392028809 -0.40720596909523 0.398948967456818
-0.137842312455177 -0.731662571430206 0.365274727344513
0.0223996974527836 -0.694029152393341 0.605813801288605
-1.93298351764679 -0.578534781932831 6.62153100967407
-0.184663772583008 -0.711585819721222 0.318055927753448
1.84378123283386 -0.615781307220459 6.50039958953857
-3.36885285377502 -0.453439831733704 6.87784957885742
-0.6663658618927 -0.708470523357391 0.859939634799957
-0.0933440327644348 -0.223206460475922 0.366245806217194
-3.47341871261597 -0.168663933873177 6.62807893753052
-0.0491629503667355 -0.122287884354591 0.343621551990509
1.36560368537903 -0.333441913127899 3.12302613258362
1.3997403383255 -0.369775027036667 3.32768416404724
0.0881203263998032 -0.371388792991638 0.401064693927765
-0.0990944057703018 -0.378512620925903 0.403212368488312
-2.30888819694519 -0.422027200460434 8.13707733154297
2.13695478439331 -0.426731288433075 7.29651069641113
-0.0685230195522308 -0.222060829401016 0.382301867008209
-3.71908187866211 0.169822081923485 6.79395151138306
1.40734493732452 0.656639337539673 4.96255540847778
-1.2550972700119 0.161979541182518 8.34391021728516
-0.867221176624298 0.710699796676636 5.7380166053772
-0.172563090920448 -0.697435915470123 -0.0933035016059875
-1.56991171836853 0.708077669143677 5.51253461837769
0.0630914866924286 -0.198093369603157 0.393222630023956
-3.30517435073853 -0.203801512718201 6.34556198120117
-3.30652070045471 1.1990442276001 5.60465478897095
1.52844142913818 -0.586948335170746 6.22275638580322
1.39892840385437 0.760668992996216 4.73550319671631
1.57249534130096 0.457050651311874 5.53334426879883
0.142391815781593 0.831825792789459 4.6717700958252
1.56777989864349 -0.45703449845314 7.64988565444946
-0.0282986760139465 -0.676626443862915 0.595749795436859
0.328347682952881 -0.71173083782196 0.879953920841217
-2.90552973747253 0.799627661705017 5.07971048355103
0.0338280014693737 -0.0549864880740643 0.347015380859375
-0.560640692710876 0.46934574842453 5.53283452987671
-2.00362801551819 -0.390223920345306 6.91832637786865
-2.2348210811615 -0.573477745056152 6.70917892456055
-1.65185403823853 0.75685065984726 5.58040523529053
-0.531729340553284 0.677866876125336 4.43144083023071
-2.25987148284912 -0.587662279605865 6.51376390457153
-0.660526394844055 -0.697828233242035 0.350410580635071
-0.633803844451904 -0.705628395080566 0.401923358440399
-0.255805283784866 -0.70862489938736 0.37108302116394
1.6225049495697 -0.465410947799683 9.25769805908203
-0.10816290974617 -0.392385452985764 0.406101047992706
-0.00517310202121735 -0.651609182357788 0.606609523296356
-0.433756768703461 -0.708824694156647 0.0193084478378296
1.84607195854187 0.665759801864624 5.72124433517456
1.66929626464844 0.0861187875270844 8.15425109863281
1.71051073074341 0.678618371486664 5.15855836868286
0.0592192597687244 -0.0237390734255314 0.484272658824921
-3.40895295143127 -0.197417721152306 6.1907262802124
-0.463807225227356 0.723984777927399 4.70310306549072
2.13350701332092 0.706505060195923 4.46840906143188
2.49942088127136 0.714404881000519 5.29881906509399
-0.078944519162178 -0.159255996346474 0.408527910709381
0.0863298028707504 -0.228024259209633 0.374719083309174
0.0606085918843746 -0.712720274925232 0.554096162319183
0.856595575809479 -0.702641546726227 1.00880813598633
-0.00994783639907837 -0.240150764584541 0.400581538677216
-0.0655157417058945 -0.538735508918762 0.565599620342255
-0.00756489485502243 -0.238449767231941 0.377506732940674
1.67901110649109 -0.362812846899033 2.79187321662903
-3.00610399246216 0.804866850376129 5.48321056365967
-0.0678262859582901 -0.168328076601028 0.423990786075592
1.53839766979218 1.33559370040894 5.23274660110474
0.0361207611858845 -0.722681701183319 0.531937062740326
2.15759372711182 1.38935923576355 5.35514354705811
0.649073958396912 1.51558899879456 5.86858463287354
0.185851886868477 0.819464087486267 4.38209962844849
2.3187370300293 1.32851469516754 5.13976383209229
1.79305672645569 -0.202662467956543 3.98750257492065
3.31089329719543 1.57123923301697 6.94629144668579
1.69205725193024 1.26931822299957 5.80878639221191
0.085801362991333 -0.471365928649902 0.509670197963715
-1.9486118555069 0.842805862426758 5.59771394729614
-1.13630855083466 1.31764221191406 5.06595945358276
-0.0897544175386429 -0.0622104145586491 0.528687298297882
-1.2893054485321 1.30352258682251 5.10820007324219
-0.932938396930695 1.27667427062988 5.10796737670898
-2.00147771835327 -0.632903277873993 5.95061540603638
-0.047786969691515 -0.658490061759949 0.671230494976044
-0.295574814081192 -0.708289265632629 -0.0990312099456787
-0.0775830745697021 -0.425540298223495 0.43255215883255
-0.0231751017272472 -0.677636682987213 0.621932804584503
-0.0801947861909866 -0.607955873012543 0.643891274929047
0.506949424743652 1.25376784801483 5.3140697479248
-1.19927477836609 1.27123141288757 5.22151947021484