0.0721802487969399 -0.168706819415092 0.461935102939606
0.023588789626956 -0.695595562458038 0.60564523935318
0.0278261434286833 -0.0816481411457062 0.34591943025589
1.60732233524323 1.4815958738327 6.02063751220703
0.165686443448067 1.45816731452942 5.53038549423218
2.00106859207153 1.43745899200439 6.85994482040405
2.07128930091858 1.31776869297028 4.54712963104248
2.27277278900146 1.58307254314423 5.02311754226685
0.0956483632326126 -0.391081750392914 0.414165794849396
0.0910107046365738 -0.294932693243027 0.371968865394592
-0.723288238048553 1.51128709316254 5.1783013343811
-0.422643423080444 0.909558653831482 3.41194128990173
-0.0646522641181946 -0.498921990394592 0.545371115207672
-0.161926969885826 -0.708427250385284 0.385165989398956
1.46431839466095 0.664114534854889 7.33756399154663
0.335429966449738 -0.710998773574829 0.392223715782166
-1.33894836902618 0.806797564029694 7.23038196563721
-0.468443274497986 0.635351121425629 4.03326559066772
-2.59119248390198 0.96638822555542 7.07132339477539
-0.604069352149963 1.49401044845581 5.31301164627075
0.45337587594986 1.12826931476593 5.161780834198
-1.00917279720306 1.69582629203796 5.73549509048462
-0.650076627731323 1.48845589160919 4.59515810012817
-0.543092846870422 1.430419921875 4.43481588363647
0.0291513372212648 -0.00838715489953756 0.449743330478668
-5.54824256896973 -0.419727623462677 7.77810096740723
0.0399757735431194 1.40846025943756 5.43807125091553
-5.90097427368164 -0.0382652543485165 8.32828330993652
-1.06498241424561 1.48061287403107 4.72449970245361
1.70998227596283 1.09074711799622 4.68147850036621
-0.48166960477829 1.41415870189667 5.53060913085938
-3.85772442817688 -0.127423629164696 5.90568876266479
0.059842050075531 -0.0540313050150871 0.449433982372284
0.0311846230179071 -0.608194530010223 0.710545837879181
0.327933967113495 -0.702012598514557 -0.0985593199729919
0.0819883868098259 -0.165449544787407 0.444547474384308
0.350063741207123 -0.739196419715881 0.427855670452118
-0.0749817043542862 -0.707174837589264 -0.101647675037384
-0.17053709924221 -0.710837841033936 0.872964799404144
-0.0081834364682436 -0.508513152599335 0.583978235721588
-15.526460647583 -0.322122871875763 27.828857421875
3.26428985595703 3.94725608825684 14.2149324417114
3.50356531143188 5.00034046173096 17.8199863433838
6.19891357421875 1.60053181648254 13.8807420730591
-5.54065179824829 7.63701105117798 20.5449867248535
8.63670539855957 13.837420463562 40.0848197937012
0.074039526283741 -0.21057765185833 0.387507438659668
0.0759863182902336 -0.408408552408218 0.39945524930954
-1.92810571193695 -0.574506878852844 6.59233856201172
-0.183935672044754 -0.711211800575256 0.319009363651276
1.84221529960632 -0.616065979003906 6.49549293518066
-3.34161734580994 -0.443723380565643 6.82421636581421
0.0867620408535004 -0.371594965457916 0.401123702526093
-0.665739774703979 -0.709002792835236 0.860289871692657
-0.0954728275537491 -0.224262416362762 0.365637540817261
-3.47917795181274 -0.173653662204742 6.64331388473511
-0.0503858327865601 -0.123621605336666 0.343364536762238
1.36481952667236 -0.332108169794083 3.12362790107727
1.40051198005676 -0.36720997095108 3.3279242515564
-0.0998165383934975 -0.379132986068726 0.402543365955353
-2.30243182182312 -0.415684372186661 8.11341857910156
2.13862180709839 -0.425330966711044 7.30187749862671
-3.72376871109009 0.167587921023369 6.80802011489868
0.0632765144109726 -0.199262276291847 0.393344283103943
1.40480577945709 0.660800695419312 4.96223926544189
-0.868118584156036 0.712983727455139 5.73886680603027
-0.172819420695305 -0.697333693504334 -0.0933302044868469
-3.31505632400513 -0.209867566823959 6.35851240158081
-3.30685830116272 1.19187128543854 5.59475803375244
1.52847957611084 -0.584136009216309 6.21306896209717
1.39737343788147 0.763512909412384 4.73641300201416
1.56807088851929 0.461120396852493 5.52610397338867
0.141680657863617 0.830304443836212 4.66606473922729
1.56985926628113 -0.458139389753342 7.63694381713867
0.0328000597655773 -0.0566938295960426 0.347252905368805
0.327848881483078 -0.712495028972626 0.880038917064667
-2.90583205223084 0.797670960426331 5.07822275161743
-0.56161504983902 0.465557545423508 5.53033018112183
-2.01221585273743 -0.395185083150864 6.9140567779541
-2.23169445991516 -0.573609888553619 6.69473934173584
-1.65391564369202 0.758775949478149 5.59226655960083
-0.533021926879883 0.674188315868378 4.4415431022644
-2.26509070396423 -0.591957092285156 6.53443908691406
-0.660117924213409 -0.698321640491486 0.348334491252899
-0.633415102958679 -0.705667614936829 0.401702344417572
-0.108993209898472 -0.393255025148392 0.4056116938591
-0.25470569729805 -0.709124267101288 0.371510624885559
1.63736319541931 -0.471488207578659 9.2048807144165
-0.0048933457583189 -0.65209823846817 0.60614401102066
-0.433713316917419 -0.708987414836884 0.0184226036071777
1.84126329421997 0.666264474391937 5.7098593711853
1.71433591842651 0.664237141609192 5.1844916343689
0.0581846907734871 -0.0249807238578796 0.484696447849274
-3.40990495681763 -0.193977445363998 6.19266271591187
-0.46746227145195 0.725011110305786 4.69596338272095
2.13539099693298 0.70554256439209 4.46530437469482
-0.0791419371962547 -0.160166040062904 0.408559739589691
2.49517941474915 0.714832127094269 5.29359579086304
0.0860254988074303 -0.229035437107086 0.375070035457611
0.0601651221513748 -0.713609576225281 0.553686439990997
0.855137169361115 -0.70370489358902 1.00914669036865
-0.0103520955890417 -0.241081818938255 0.400282800197601
-0.0659075379371643 -0.539546012878418 0.565010845661163
-0.00727113895118237 -0.239999786019325 0.377588450908661
1.68225169181824 -0.367364019155502 2.79696607589722
-3.00252342224121 0.80118316411972 5.47208738327026
1.53678107261658 1.33583629131317 5.23428058624268
0.0368005819618702 -0.722783505916595 0.53206592798233
2.15011692047119 1.38234210014343 5.33160066604614
1.35476887226105 0.747836768627167 4.42132139205933
0.645630419254303 1.51468694210052 5.85792636871338
0.186718240380287 0.82013201713562 4.39686822891235
2.31447529792786 1.32488584518433 5.12320947647095
1.78952372074127 -0.203333035111427 3.99643111228943
1.69525372982025 1.27181351184845 5.78558111190796
0.0851471498608589 -0.470877230167389 0.509335458278656
-1.96101319789886 0.844797313213348 5.63532590866089
-1.13630187511444 1.31609296798706 5.04698133468628
-0.0918657854199409 -0.0635229200124741 0.529481709003448
-1.29466390609741 1.30583691596985 5.12816333770752
-0.929913699626923 1.27149927616119 5.08472681045532
-1.99898445606232 -0.635542869567871 5.93812942504883
-0.0477829724550247 -0.659059405326843 0.670744717121124
-0.296882957220078 -0.707121610641479 -0.0994995832443237
-0.0790638104081154 -0.427006304264069 0.433819472789764
-0.0230761040002108 -0.677987039089203 0.622538506984711
0.504747033119202 1.25379920005798 5.2980318069458
-1.20241248607636 1.27272212505341 5.2377724647522
-1.32368469238281 1.17625892162323 5.21802186965942
0.154563680291176 -0.0429875403642654 0.542007982730865
-3.35258436203003 -0.179925546050072 5.94316816329956
2.16537976264954 1.23483037948608 5.85072469711304
1.91418635845184 0.702606379985809 5.03912591934204
1.88078236579895 1.45442569255829 5.67242813110352
-3.27800798416138 -0.569299876689911 5.84270000457764
-4.97325944900513 -0.405892729759216 7.53231811523438
-0.938345432281494 1.22939240932465 4.63156032562256
0.0398919470608234 -0.15386950969696 0.378146350383759
-0.554818987846375 1.25426065921783 5.55629396438599
1.44053936004639 1.57605147361755 5.31830453872681