-0.292198419570923 -1.13414907455444 1.76682376861572
11.6153106689453 0.080886647105217 4.28218984603882
1.35715484619141 -0.923081338405609 1.77906703948975
-0.344251751899719 0.705083727836609 2.37454533576965
2.80668711662292 -0.638869225978851 2.67581367492676
5.37041854858398 -0.511624872684479 3.40918922424316
18.4260768890381 1.51669561862946 7.95442008972168
1.76732778549194 1.24985992908478 2.57483053207397
2.03279423713684 1.36873424053192 2.62615919113159
7.0931396484375 -0.104037702083588 3.90732336044312
0.289953947067261 -0.19950644671917 1.78877568244934
0.476454973220825 0.887905716896057 1.95834529399872
21.4314231872559 1.47782003879547 10.1672973632813
0.894397020339966 -1.05869889259338 1.90299928188324
6.9017219543457 -1.15054643154144 2.19466590881348
0.435011863708496 -0.250382244586945 1.87570238113403
0.928558349609375 -0.561751902103424 1.79288351535797
7.74844551086426 0.613669455051422 3.79436635971069
12.3267679214478 1.25813817977905 5.20090055465698
10.3722448348999 2.31134414672852 5.49309778213501
7.93460464477539 0.454900741577148 2.20122122764587
5.20584392547607 -1.30816662311554 3.16728544235229
20.9744434356689 1.69506800174713 9.57563304901123
11.8194055557251 -0.0931632667779922 2.94543790817261
0.740692377090454 -0.959796667098999 1.77957999706268
3.74195265769959 -1.19656229019165 1.5708224773407
3.38369679450989 -0.757290899753571 1.49692475795746
6.52338409423828 -0.491589069366455 2.22069811820984
9.40418148040771 0.999523758888245 2.96357870101929
10.7289533615112 0.737461090087891 4.03441715240479
4.13920307159424 -1.2175954580307 1.74078273773193
0.535008192062378 -0.428914159536362 1.71622383594513
5.11800765991211 -0.129646971821785 3.9769811630249
0.659647703170776 -1.43933415412903 1.9124116897583
0.362422704696655 -0.0638906508684158 4.17757892608643
1.44631600379944 -0.660800039768219 1.73326694965363
0.00472903251647949 0.792943358421326 3.27183866500854
0.155659198760986 0.941415965557098 3.78732538223267
0.0812160968780518 -0.011487478390336 4.02372312545776
0.431117653846741 -0.279745072126389 4.31065130233765
-0.257762432098389 -0.22212028503418 1.78141021728516
0.0877585411071777 0.0891473442316055 3.61620140075684
0.122586607933044 1.09588277339935 3.96421146392822
1.99306106567383 1.46585750579834 7.45530033111572
1.16519713401794 -0.714860498905182 5.86518049240112
-0.0302841663360596 0.595823466777802 3.75865983963013
1.00930833816528 -0.855115056037903 1.6642472743988
0.550560593605042 0.756662547588348 4.44897508621216
0.136065363883972 0.499096035957336 3.45594692230225
0.0326313972473145 -0.621483385562897 4.09235095977783
-0.383848667144775 -1.07456147670746 1.74654948711395
-1.21021330356598 -1.40118062496185 1.82805931568146
-1.17024612426758 -1.37500464916229 1.79787647724152
0.403774857521057 -0.781383037567139 1.49968695640564
-0.806780934333801 -1.27325284481049 1.65699136257172
-0.752010405063629 -1.22047019004822 1.75264298915863
-0.548546493053436 -1.52308630943298 2.06321048736572
-0.32803213596344 -1.14177513122559 1.8188214302063
0.332263708114624 0.560996234416962 1.77969348430634
-0.0267698764801025 0.879766047000885 3.74326229095459
0.275268793106079 0.286202698945999 1.76978385448456
0.375545620918274 0.730707168579102 4.78752183914185
14.6382131576538 0.972990036010742 7.8089861869812
0.0800013542175293 -1.5951589345932 5.01414346694946
4.09077453613281 0.865223109722137 4.44361448287964
9.98836326599121 0.080511212348938 4.11893749237061
13.7857208251953 -0.355100780725479 7.26111268997192
9.42920875549316 0.597047209739685 3.48691368103027
-0.570344865322113 -1.27265167236328 1.64369404315948
0.972371101379395 -0.627869009971619 1.98828327655792
50.3553161621094 3.67910599708557 17.7794895172119
3.26285672187805 -0.420393317937851 2.2294135093689
1.94344902038574 -0.206055983901024 2.61739683151245
7.30271339416504 -0.128496199846268 4.49201536178589
9.83238506317139 0.760081946849823 3.90177536010742
0.442530870437622 -0.332352310419083 1.83405876159668
5.28981685638428 1.25787508487701 1.87195241451263
-0.567422151565552 -1.41517817974091 1.91110897064209
-0.298096299171448 -1.28644692897797 2.37468099594116
0.639784574508667 -0.826936960220337 4.64356279373169
2.06597518920898 -0.918105781078339 1.45487570762634
4.05957317352295 -1.16634809970856 1.7666836977005
5.74672889709473 -0.182136699557304 4.27264785766602
1.37985229492188 -0.731434106826782 1.6966450214386
1.4161069393158 -0.916892349720001 1.39058351516724
1.96079039573669 -0.924124419689178 1.3835723400116
4.06896591186523 -0.805311441421509 1.7775764465332
2.56639885902405 -0.372377455234528 2.79651021957397
0.814743280410767 -0.879729509353638 1.65064465999603
0.974675416946411 -0.540594935417175 1.94467628002167
2.64441323280334 -0.549625515937805 1.75032460689545
4.27500915527344 -0.423576831817627 2.63638544082642
28.8509063720703 -0.385682642459869 10.8926410675049
8.95164775848389 0.216363817453384 3.91617774963379
4.63153743743896 -0.939720451831818 1.5652289390564
5.07195091247559 -0.793112099170685 1.89092659950256
10.0990476608276 1.41636729240417 4.00027465820313
1.188232421875 -1.01014149188995 1.59748291969299
10.1782321929932 0.573727428913116 3.67449617385864
9.4189977645874 1.34411609172821 3.50142431259155
12.4359292984009 0.646947920322418 3.57496166229248
12.2026147842407 0.766548335552216 6.05681228637695
1.30003213882446 -0.946197926998138 1.51431822776794
9.65033054351807 0.640650749206543 4.63368892669678
10.1597919464111 0.364037841558456 3.85377264022827
12.1688823699951 1.5126701593399 4.4616117477417
7.16670417785645 0.269408375024796 2.70574235916138
9.04190254211426 0.0356152467429638 3.20247316360474
11.4059772491455 1.2790858745575 5.63359689712524
3.53638958930969 -1.10643589496613 1.69430088996887
1.35926246643066 -0.86860865354538 1.70881032943726
2.50204706192017 -0.917491018772125 1.68690192699432
1.86331820487976 -0.596777319908142 1.5933883190155
1.84705114364624 -0.989573955535889 1.50730335712433
1.98070597648621 -0.702429413795471 1.60189008712769
4.12551403045654 -0.838229537010193 1.78413140773773
7.47914218902588 -0.559049785137177 2.0854344367981
1.36328148841858 -0.779871940612793 1.54103791713715
1.1871931552887 -0.842014610767365 1.58448255062103
10.0510702133179 0.537103474140167 3.96489238739014
10.0620698928833 -0.220375150442123 3.58377456665039
2.16524076461792 -0.57059109210968 1.54705727100372
0.331107497215271 -0.238071799278259 1.86340153217316
-0.63196587562561 -1.42007768154144 1.71211183071136
9.61107444763184 2.12605834007263 6.40166854858398
6.10871124267578 0.281715244054794 3.71121025085449
6.36910915374756 1.23199868202209 3.49394464492798
11.8204851150513 0.779198944568634 4.68614864349365
1.24076890945435 -1.10891819000244 1.62243854999542
5.31247425079346 -1.19756758213043 1.82121813297272
0.731680154800415 -1.47421872615814 1.91522133350372
6.24565601348877 0.206046015024185 3.72794532775879
0.668318748474121 0.0440668426454067 4.50761222839355
-0.0821483135223389 -1.3240510225296 3.16009044647217
1.56525111198425 -1.04751002788544 1.5372279882431
1.13398003578186 -0.950856924057007 1.69288146495819
-0.614889681339264 -1.39437353610992 1.73944222927094
1.25294947624207 -0.634519636631012 1.98718512058258
6.7328519821167 0.390351355075836 4.14348411560059
1.48723316192627 -0.0159679930657148 6.35035419464111
0.210567355155945 -0.209608063101768 3.90904331207275
9.85222911834717 0.163977220654488 3.89986944198608
6.58926868438721 1.08755505084991 3.76135444641113
2.29529976844788 -0.842790067195892 1.68379175662994
1.05290460586548 -0.686700344085693 1.82627701759338
-0.641025602817535 -1.45703554153442 1.90525341033936
1.41452193260193 -0.945252060890198 1.64485895633698
1.94725656509399 -0.685473620891571 1.51757061481476
9.3191967010498 0.940588057041168 4.6457953453064
2.38297629356384 -0.634558379650116 1.690389752388
2.19679856300354 -0.882215321063995 1.51029789447784
1.23991894721985 -0.621878385543823 1.74151527881622
0.747793197631836 -0.714499950408936 1.59472787380219
0.294446349143982 0.465453028678894 1.78903830051422
0.192209839820862 -0.390926450490952 3.88839864730835
3.48807740211487 -0.387549787759781 3.00851488113403
13.1883134841919 0.469229638576508 5.13629055023193
9.39570140838623 2.07913661003113 6.1952600479126
6.22561454772949 -0.349084764719009 3.68129825592041
0.324562788009644 0.230469524860382 1.81060326099396
-0.606533586978912 -1.46427977085114 1.77139854431152
2.94631218910217 -0.259836584329605 3.11791801452637
10.6598215103149 1.14525735378265 3.80975961685181
3.14141774177551 -0.408250480890274 3.58447360992432
6.53700256347656 -0.618435144424438 1.92998051643372
7.38661193847656 0.264432549476624 3.61927366256714
0.212343096733093 -0.117044627666473 3.91648530960083
21.4172630310059 4.09527540206909 16.6575660705566