0.282297253608704 -1.15585732460022 1.8304101228714
0.227565884590149 -1.14943957328796 1.81111812591553
0.808265149593353 -0.674424767494202 1.69693720340729
1.37154769897461 -0.810618460178375 1.45929431915283
-2.90369653701782 1.00537109375 7.25514364242554
0.565891742706299 -0.987551033496857 1.50352799892426
0.290336728096008 -0.156680881977081 1.8642235994339
0.341495156288147 -1.28021037578583 1.97947263717651
-12.2791604995728 -1.0969432592392 20.4041137695313
-5.75698089599609 1.22091925144196 10.5591917037964
-3.18681526184082 1.35854208469391 7.51742649078369
0.581736087799072 -1.46733224391937 1.85807192325592
-18.698486328125 -4.92078542709351 10.999321937561
-17.0181941986084 -0.496349334716797 11.1467123031616
-12.2357006072998 -1.73393213748932 6.75218343734741
-17.2080783843994 -0.00985535513609648 10.4863224029541
-19.1333999633789 1.11233615875244 11.1710186004639
-0.367090344429016 -1.26108682155609 1.86148345470428
0.271409749984741 -1.14231610298157 1.85562026500702
-11.055814743042 -2.52630972862244 6.46979188919067
0.25884997844696 -1.29786205291748 1.82910895347595
1.19682669639587 -0.78056126832962 1.46949768066406
-9.4742259979248 -1.42868137359619 5.42248821258545
0.230827808380127 -0.256842792034149 1.81918597221375
0.277453899383545 -0.25648906826973 1.85531234741211
0.241421222686768 -0.215949609875679 1.84004485607147
0.247446656227112 -0.230830624699593 1.84930694103241
1.15085506439209 -0.885969579219818 1.49194526672363
-26.6782493591309 1.31307625770569 15.9804182052612
0.241578936576843 -0.181452080607414 1.80346810817719
0.285729289054871 -0.47572860121727 1.99509108066559
0.536144137382507 -1.43729865550995 1.83596563339233
1.00558590888977 -1.037442445755 1.5300178527832
0.271774053573608 -0.270199149847031 1.86922836303711
1.16624021530151 -0.873979032039642 1.48867678642273
-13.5209493637085 -1.43432545661926 7.84659862518311
1.18372714519501 -0.783537149429321 1.46097660064697
1.22322559356689 -0.743880450725555 1.47508823871613
-13.5730724334717 -0.108351685106754 7.67943906784058
-18.8444538116455 -3.75281953811646 11.1599903106689
0.230046629905701 -1.302889585495 1.69715845584869
-0.402691006660461 -0.217989787459373 1.90969085693359
0.228462696075439 -1.26415371894836 1.8293651342392
-6.97271919250488 -1.45218336582184 15.0034656524658
1.39396750926971 -0.883866310119629 1.41609585285187
1.42223346233368 -0.904088735580444 1.40678787231445
1.41212379932404 -0.940902769565582 1.41505408287048
1.41169667243958 -0.859978497028351 1.4126101732254
1.39559316635132 -0.949089288711548 1.41250014305115
1.22522914409637 -0.733349561691284 1.48110151290894
-1.88503634929657 -1.4430513381958 1.97338831424713
-0.474476218223572 -1.34101676940918 1.87084519863129
0.964411556720734 -0.856065690517426 1.62954807281494
-0.535741686820984 -1.46855890750885 1.82977449893951
-9.49693298339844 -0.167789101600647 5.41631603240967
-0.139895081520081 -0.652995109558105 3.21202445030212
1.37548100948334 -0.90199488401413 1.4010466337204
1.44997310638428 -0.923544526100159 1.40848124027252
1.3860627412796 -0.917969167232513 1.40630316734314
1.20671463012695 -0.613414645195007 1.55808734893799
-18.868221282959 -5.59296369552612 11.1692037582397
-3.21726322174072 -1.50690400600433 1.82677602767944
-0.748080372810364 -1.43489623069763 1.8327761888504
0.250569462776184 -1.2293576002121 1.84875023365021
-0.370450139045715 -1.22537636756897 1.78803062438965
-11.8253622055054 1.48280811309814 7.67182540893555
-9.89951705932617 0.705369830131531 5.6699366569519
1.44539022445679 -0.877489864826202 1.41207647323608
0.269242644309998 -0.0759680271148682 2.44065237045288
0.292268395423889 -0.201667279005051 2.43297386169434
1.32315254211426 -0.76857990026474 1.44467389583588
1.46020030975342 -0.884445548057556 1.40506196022034
0.518020868301392 -1.44077038764954 1.8579009771347
-4.00537347793579 -1.95693397521973 2.17755770683289
-3.16559219360352 -1.468994140625 1.84715890884399
-0.36898148059845 -1.47500479221344 1.74979496002197
-3.02361488342285 -1.17776668071747 1.74979519844055
0.648288249969482 -1.27594697475433 1.72627913951874
-0.55322253704071 -0.208546623587608 2.06808686256409
-8.06943893432617 1.94800543785095 5.53580856323242
0.40414834022522 -1.47277176380157 1.86282241344452
0.268915176391602 -0.338319510221481 1.94903910160065
-19.8837413787842 2.1379611492157 10.7105569839478
-20.1973609924316 3.23667144775391 10.5871095657349
-40.0259742736816 -2.81309962272644 22.126293182373
0.86212420463562 -0.503256320953369 1.74680292606354
-0.555594563484192 -1.4544450044632 1.85229539871216
-1.00680863857269 0.0322373881936073 4.21927261352539
-10.3440284729004 -0.778403997421265 17.5967903137207
0.80371105670929 -0.608614921569824 1.75830340385437
0.239156484603882 -0.501150906085968 2.93669033050537
0.0695451498031616 -0.655979812145233 3.1385178565979
0.992386639118195 -0.848047971725464 1.60485172271729
0.791663348674774 -0.92719978094101 1.7125905752182
1.42210757732391 -0.956217169761658 1.42674720287323
1.21139216423035 -0.781477332115173 1.48797750473022
1.28437387943268 -0.912455499172211 1.46882629394531
1.0071724653244 -1.03357768058777 1.54262661933899
1.10631680488586 -0.640086233615875 1.54022872447968
1.29893815517426 -0.897651672363281 1.4567277431488
1.15923070907593 -0.536689698696136 1.5453360080719
-0.570974707603455 -1.55554950237274 1.91355037689209
-0.308968186378479 -1.50998544692993 1.82599258422852
0.787108421325684 -0.723941504955292 1.73521542549133
1.09628772735596 -0.661778092384338 1.5107581615448
1.11836421489716 -0.635685861110687 1.50434112548828
0.245636701583862 -1.4125702381134 1.93656814098358
0.902659833431244 -0.611952722072601 1.72015178203583