-5.18539333343506 -0.337633162736893 10.3791265487671
-3.17283654212952 -0.358555138111115 6.52761316299438
-5.5250825881958 1.56662118434906 11.0410356521606
4.02773857116699 1.44598650932312 8.71354579925537
-3.96952319145203 -1.77441275119781 7.80959606170654
-2.03485822677612 1.07131719589233 5.86009645462036
-8.93464469909668 1.58982956409454 18.4771385192871
0.662048280239105 1.08982586860657 4.13019466400146
-5.21394824981689 0.16833022236824 12.0105886459351
-4.49493312835693 0.476495563983917 10.0645952224731
0.393563091754913 -0.178312554955482 3.42338728904724
1.06828820705414 -0.954024791717529 3.91655611991882
0.616245269775391 -0.523336350917816 5.68673658370972
0.774676918983459 -0.248477026820183 3.29569482803345
0.581236898899078 -0.782454967498779 7.58595132827759
0.746304929256439 -0.262383937835693 3.21505546569824
0.757552742958069 -0.370973348617554 4.69763278961182
-3.03671026229858 -1.03044235706329 6.40233659744263
0.73429149389267 -0.22561451792717 4.86416482925415
0.713444948196411 -0.941896796226501 3.34491729736328
0.976949572563171 -0.228819653391838 4.62879657745361
0.501920223236084 -1.62563049793243 2.80644774436951
0.470257103443146 -1.52150630950928 2.96676397323608
-2.26867890357971 -1.47456514835358 5.40004110336304
-1.77251374721527 -1.60321795940399 4.36637878417969
-3.78703904151917 -1.44467258453369 5.89519071578979
-3.78054356575012 -1.31889915466309 5.75202941894531
-2.09475564956665 -1.54063558578491 5.31372499465942
-3.23738408088684 0.0277379024773836 6.64651155471802
-1.57775247097015 -1.48834216594696 4.24101209640503
-1.72940635681152 -1.47506999969482 4.67068243026733
0.797054409980774 -0.927904307842255 2.94498562812805
0.77562689781189 -0.763844609260559 3.31748080253601
1.02834320068359 -0.191695600748062 4.33261346817017
-5.46288633346558 -0.245599761605263 12.1993370056152
0.726769328117371 -0.916056156158447 4.43770217895508
1.20464861392975 0.0743009224534035 5.43887090682983
0.433755695819855 -0.498426914215088 5.85932874679565
0.26324337720871 -0.244708493351936 1.99858403205872
-5.35340452194214 -1.17303025722504 12.2645072937012
0.243772268295288 -0.294705241918564 1.95549869537354
1.04764926433563 0.211564615368843 5.27563619613647
1.53181850910187 0.912062168121338 9.15452098846436
0.856766223907471 -0.936691045761108 1.77036440372467
0.639180958271027 -1.43517303466797 1.87040090560913
0.887556195259094 -0.933837056159973 1.79307651519775
0.851350069046021 -0.874877154827118 1.75434756278992
0.247483551502228 -1.15786528587341 1.81026721000671
0.578701138496399 -1.45753800868988 2.00146389007568
0.593524277210236 -1.37610638141632 1.75159084796906
-2.97048926353455 -0.427443742752075 6.25041055679321
0.63124281167984 -1.53381037712097 2.04705381393433
0.540672779083252 -1.42223060131073 1.8073958158493
0.590902924537659 -1.43924403190613 2.00810813903809
0.608094930648804 -1.53959453105927 1.87803220748901
0.599259257316589 -1.53757107257843 1.91038489341736
0.264835327863693 -1.31627988815308 1.85074770450592
0.268463790416718 -1.24823927879334 1.87090718746185
1.04627537727356 -0.948941230773926 1.50089299678802
0.0478401333093643 0.151715829968452 1.80077564716339
-4.96277236938477 -0.752564191818237 13.436502456665
0.564355969429016 0.747975289821625 7.43411302566528
0.048103466629982 0.073946438729763 1.82897126674652
-0.0258245468139648 0.11625699698925 1.83346807956696
-0.0330952405929565 0.139806091785431 1.82098960876465
-0.317623823881149 -0.282803744077683 1.80074417591095
-4.10774374008179 -1.07160639762878 11.7969274520874
-1.46541011333466 -1.50020909309387 4.14549684524536
-0.30120924115181 -0.230458930134773 1.79192292690277
-0.275991946458817 -0.212549671530724 1.76309859752655
-3.53917694091797 1.01060712337494 9.85933589935303
-3.39707469940186 0.937110245227814 9.30125331878662
-4.690025806427 1.04967904090881 10.0201225280762
-3.4274480342865 1.38150775432587 8.78698635101318
-3.33737421035767 -3.68418264389038 8.99978923797607
-0.300871342420578 -1.10363376140594 1.73841822147369
-0.323573082685471 -1.16021049022675 1.80626714229584
-0.49538442492485 -1.39916944503784 1.78186130523682
-0.481756299734116 -1.43603932857513 1.78925263881683
-0.354269295930862 -1.34338116645813 1.80942571163177
-0.604633927345276 -1.41664910316467 1.94807255268097
-0.580169558525085 -1.42076575756073 1.91680240631104
-0.615843653678894 -1.43752896785736 1.79045104980469
-4.16761255264282 1.44556725025177 8.87221813201904
-0.751651763916016 -1.52498769760132 1.98783588409424
-0.251238375902176 -1.20321428775787 1.71330833435059
-0.635422110557556 -1.46663427352905 1.92089009284973
-0.302243560552597 -1.2774533033371 1.77331840991974
-0.652337193489075 -1.42756295204163 1.91378831863403
0.193955525755882 -1.31979489326477 1.91712236404419
0.268588423728943 -1.0904552936554 1.81960582733154
-0.013716071844101 0.116562992334366 1.91482210159302
-0.479410797357559 -1.36638617515564 1.76492464542389
2.57395768165588 1.35346448421478 5.8551721572876
-3.22468137741089 0.0603745132684708 6.70353221893311
-3.53901934623718 0.469261556863785 9.82405567169189
0.00149405002593994 0.0403702780604362 1.87148678302765
-4.20268440246582 0.598950266838074 11.7517967224121
0.418614625930786 -1.32682514190674 2.93202042579651
-0.310093015432358 -0.258662581443787 1.75102317333221
-4.89714193344116 -1.45762062072754 14.53200340271
-0.530324101448059 -1.47249960899353 2.03765320777893
-2.09777927398682 -2.07571983337402 4.59594345092773
-0.560376763343811 0.263179183006287 2.43481183052063
-3.34387636184692 0.647319197654724 9.84169578552246