-0.253052771091461 -0.441509813070297 0.707138419151306
0.0147460103034973 -0.541409373283386 0.399547040462494
-0.0567610412836075 -0.50749933719635 0.382508128881454
-0.206080168485641 -0.523080945014954 0.585067868232727
0.0268635004758835 -0.520302653312683 0.40647280216217
0.098352462053299 -0.481966286897659 0.56058394908905
-0.0795053094625473 -0.432643800973892 0.46971920132637
0.0322418734431267 -0.479978173971176 0.44567283987999
0.0444886386394501 -0.478989690542221 0.429223090410233
0.232824310660362 -0.420561641454697 0.734232783317566
0.233558028936386 -0.427491277456284 0.731744706630707
-0.262362599372864 -0.416790276765823 0.59663712978363
0.0923858359456062 -0.485868901014328 0.597900867462158
-0.0107351318001747 -0.408525317907333 0.365295976400375
-0.0910839885473251 -0.364845365285873 0.476480692625046
-0.116672411561012 -0.412674456834793 0.619033575057983
-0.28517410159111 -0.5374675989151 0.587291836738586
-0.308716267347336 -0.525398969650269 0.566314995288849
-0.381018370389938 -0.539919853210449 0.571325480937958
-0.0961811542510986 -0.447109967470169 0.514953017234802
-0.153467953205109 -0.420142978429794 0.655717790126801
-0.0662665665149689 -0.436105281114578 0.487573474645615
-0.0504195094108582 -0.540453195571899 0.325055003166199
0.0760679319500923 -0.398419171571732 0.621133029460907
-0.276051580905914 -0.537653803825378 0.612128436565399
0.119897343218327 -0.441846460103989 0.779783546924591
0.0751675143837929 -0.48442330956459 0.66872364282608
-0.259416311979294 -0.537106871604919 0.591106653213501
-0.340816557407379 -0.418045192956924 0.631195068359375
0.0214967206120491 -0.49002280831337 0.438645929098129
0.079209953546524 -0.459280103445053 0.416311502456665
0.0716704279184341 -0.426070362329483 0.507648944854736
0.0665023028850555 -0.415508061647415 0.657574474811554
0.305805683135986 -0.524647951126099 0.665542244911194
0.102112807333469 -0.49143972992897 0.590085506439209
0.12271624058485 -0.418983191251755 0.720326721668243
0.182674035429955 -0.540404200553894 0.659803748130798
0.105613216757774 -0.519556283950806 0.556280672550201
0.415770053863525 -0.515191078186035 0.715103626251221
0.0783857554197311 -0.532759666442871 0.395457983016968
-0.0245738625526428 -0.174207389354706 0.529524266719818
-0.309552937746048 -0.431686669588089 0.598848879337311
-0.0698456466197968 -0.30388605594635 0.515259087085724
-0.452583432197571 -0.408892184495926 0.609789609909058
-0.202566564083099 -0.512747645378113 0.559000968933105
0.126201465725899 -0.526972055435181 0.649535596370697
0.0299965515732765 -0.575900793075562 0.30964320898056
-0.478115677833557 -0.533414363861084 0.539954841136932
-0.433533728122711 -0.52911913394928 0.545623481273651
0.1089868247509 -0.438129752874374 0.645602583885193
0.381718009710312 -0.547780394554138 0.434719234704971
0.0444200709462166 -0.578240156173706 0.222073644399643
0.0863970741629601 -0.532713651657104 0.273965507745743
-0.0971522033214569 -0.569213151931763 0.28283903002739
0.046528697013855 -0.525288820266724 0.338132113218308
-0.171134889125824 -0.523357033729553 0.588720858097076
-0.199828863143921 -0.434303969144821 0.663806080818176
-0.0372155755758286 -0.587505698204041 0.309059470891953
0.0267761722207069 -0.536757349967957 0.277288615703583
-0.114220172166824 -0.534863591194153 0.269435584545136
-0.122622027993202 -0.513385653495789 0.280336260795593
0.0725701451301575 -0.519996523857117 0.264757305383682
-0.00816398113965988 -0.54547917842865 0.262738078832626
0.297719359397888 0.0346817746758461 0.726948380470276
0.460214763879776 -0.420448035001755 0.770146071910858
0.348483741283417 -0.420472353696823 0.751792252063751
0.439548015594482 -0.531997561454773 0.714303255081177
-0.0479346066713333 -0.494263797998428 0.420068591833115
0.285793840885162 -0.524020910263062 0.318310081958771
0.303445845842361 -0.532279133796692 0.33646035194397
0.0616970509290695 -0.568881511688232 0.122541643679142
-0.45989066362381 -0.227219849824905 0.596778333187103
-0.0103874206542969 -0.550729036331177 0.11543420702219
0.0866801962256432 -0.54484486579895 0.100004486739635
0.344306588172913 -0.213810861110687 0.742928028106689
0.391812652349472 -0.537063360214233 0.431526035070419
0.148535326123238 -0.54049825668335 0.152146577835083
0.31295108795166 -0.537970662117004 0.240515112876892
-0.166833996772766 -0.528335452079773 0.625241935253143
0.321821689605713 -0.542048096656799 0.345186293125153
0.228560119867325 -0.543101072311401 0.178767740726471
-0.0823060423135757 -0.545817017555237 0.128470748662949
0.0938444808125496 -0.54635763168335 0.126957952976227
-0.333789736032486 -0.545699596405029 0.238725900650024
0.372089505195618 -0.533717155456543 0.348818421363831
0.171481162309647 -0.543315887451172 0.135544180870056
0.00893820077180862 -0.190080136060715 0.514136373996735
-0.105798840522766 -0.212037920951843 0.653330445289612
0.439053654670715 -0.527629256248474 0.543933033943176
-0.150450021028519 -0.523639321327209 0.619176030158997