0.0851095020771027 -0.482933461666107 0.447314649820328
0.0784005373716354 -0.494256854057312 0.430407047271729
0.234227269887924 -0.430358052253723 0.73906147480011
-0.00843759626150131 -0.537363111972809 0.271022796630859
-0.0245295539498329 -0.539608836174011 0.269859790802002
0.0432537570595741 -0.537572205066681 0.250509470701218
0.0401466488838196 -0.534276127815247 0.260771751403809
0.354500889778137 -0.53647780418396 0.691566288471222
-0.342607378959656 -0.224329143762589 0.637207210063934
0.0651569440960884 -0.535726308822632 0.244095325469971
0.119551807641983 -0.522325336933136 0.295545816421509
0.406777828931808 -0.52938050031662 0.710013329982758
0.230093777179718 -0.188831105828285 0.713998794555664
0.0703684017062187 -0.377388834953308 0.619343221187592
0.05929184705019 -0.522782802581787 0.290878355503082
0.0972236394882202 -0.534009993076324 0.346114099025726
0.232862234115601 -0.184670761227608 0.66584312915802
0.0690095648169518 -0.537329733371735 0.275085747241974
-0.0254061296582222 -0.540030062198639 0.262538522481918
0.346948385238647 -0.528694450855255 0.561257660388947
0.111110843718052 -0.538893699645996 0.285086184740067
0.0861407592892647 -0.53157240152359 0.27440932393074
0.116225391626358 -0.400347024202347 0.700352132320404
0.120465368032455 -0.533678114414215 0.432053983211517
0.0760147348046303 -0.372625678777695 0.573369383811951
-0.0691898241639137 -0.303656995296478 0.526567816734314
-0.33803716301918 -0.415753126144409 0.631178557872772
-0.0858246758580208 -0.36748480796814 0.472343862056732
-0.0910924598574638 -0.36320224404335 0.472646296024323
-0.13161900639534 -0.464379042387009 0.551900327205658
0.104837223887444 -0.553593039512634 0.664403021335602
-0.121361650526524 -0.460559248924255 0.542010009288788
-0.0466121435165405 -0.484596103429794 0.411750495433807
-0.01329705119133 -0.488198786973953 0.431564807891846
0.014099158346653 -0.552287042140961 0.409107565879822
-0.09554473310709 -0.367674469947815 0.500733137130737
-0.119065083563328 -0.405604302883148 0.51776522397995
-0.266906321048737 -0.420078665018082 0.600722789764404
-0.28383594751358 -0.53349381685257 0.582781195640564
0.0407008714973927 -0.567409515380859 0.418300181627274
-0.0182808712124825 -0.534696042537689 0.389482021331787
0.0953405648469925 -0.500042021274567 0.608130037784576
-0.0388981476426125 -0.541080892086029 0.390619426965714
-0.209804236888886 -0.529377341270447 0.591301262378693
0.0251462906599045 -0.520983159542084 0.396751254796982
0.319835364818573 -0.531619548797607 0.691877901554108
-0.0660048052668571 -0.51851499080658 0.381399393081665
-0.267324507236481 -0.519294261932373 0.590760707855225
-0.0915646776556969 -0.410981625318527 0.494775295257568
0.07453753054142 -0.545470058917999 0.417957305908203
-0.316648453474045 -0.5354984998703 0.576819777488709
-0.267430365085602 -0.54716169834137 0.60456508398056
0.125549614429474 -0.527223825454712 0.650304555892944
0.028045829385519 -0.503749430179596 0.390581339597702
0.00640803575515747 -0.535395741462708 0.361058712005615
-0.0914993658661842 -0.533337891101837 0.409757107496262
-0.0219131037592888 -0.459084242582321 0.401805907487869
0.0364689342677593 -0.518704116344452 0.398623049259186
-0.228824943304062 -0.5669846534729 0.622117102146149
0.0812654569745064 -0.536840200424194 0.311514914035797
-0.0910205021500587 -0.467949718236923 0.50676566362381
0.244762986898422 -0.222648352384567 0.727650284767151
-0.0414892137050629 -0.203042253851891 0.511105537414551
0.102055087685585 -0.517923176288605 0.423071831464767
-0.0369942486286163 -0.202969878911972 0.516261518001556
-0.0239982530474663 -0.204003840684891 0.521963179111481
-0.0074281170964241 -0.199009016156197 0.50600254535675
-0.00875242799520493 -0.224552065134048 0.518576622009277
-0.312644273042679 -0.223202645778656 0.609887599945068
-0.0336709693074226 -0.501364886760712 0.4029221534729
0.0702918991446495 -0.360828429460526 0.565327405929565
-0.34253665804863 -0.421692162752151 0.633879005908966
0.314629852771759 -0.554808914661407 0.717807769775391
0.0708095878362656 -0.467311888933182 0.431455284357071
0.0677866637706757 -0.462911128997803 0.550014793872833
0.0636574253439903 -0.489820778369904 0.439723581075668
0.108818098902702 -0.52045476436615 0.419865339994431
-0.238528579473495 -0.232825562357903 0.629856407642365
-0.379145443439484 -0.535674691200256 0.568100929260254
-0.305058985948563 -0.529159486293793 0.562431216239929
0.103657186031342 -0.217374846339226 0.675152122974396
0.250339537858963 -0.528679370880127 0.679325819015503
-0.0222484171390533 -0.227217838168144 0.516189575195313
0.00308147072792053 -0.211576774716377 0.509733438491821
0.100565165281296 -0.515372037887573 0.597426176071167
-0.00724142044782639 -0.299188882112503 0.454355537891388
-0.0619288757443428 -0.513576686382294 0.385118931531906
-0.34107717871666 -0.536557197570801 0.57681930065155
-0.088375635445118 -0.551592230796814 0.405691593885422
0.0971031337976456 -0.515872955322266 0.423407077789307
0.20047864317894 -0.526424944400787 0.665545463562012
-0.0364773124456406 -0.473928570747375 0.412004470825195
0.276323616504669 -0.553364515304565 0.448266744613647
-0.0438163056969643 -0.496556222438812 0.402316629886627
0.0134479142725468 -0.161654263734818 0.590524911880493
0.0865212008357048 -0.487459510564804 0.43043515086174
0.0128777027130127 -0.264895856380463 0.495502114295959
-0.414534598588943 -0.436315983533859 0.598830580711365
-0.355283439159393 -0.212197661399841 0.636444091796875
-0.222164422273636 -0.216226443648338 0.639791429042816
-0.226433932781219 -0.220590874552727 0.622303247451782
0.0381684117019176 -0.546344697475433 0.277538150548935
-0.393246918916702 -0.434536010026932 0.59952712059021
-0.042714037001133 -0.202693998813629 0.532526195049286
-0.0580920055508614 -0.208750605583191 0.509279131889343
0.117823787033558 -0.221399411559105 0.71972668170929
0.0184918157756329 -0.54476261138916 0.273468971252441
0.231568217277527 -0.418327540159225 0.731035113334656
-0.104943953454494 -0.5411057472229 0.339344531297684
0.00895395129919052 -0.537695646286011 0.306223511695862
0.134112372994423 -0.543822526931763 0.295440793037415
0.0640433430671692 -0.536222517490387 0.292213588953018
0.127291902899742 -0.537798225879669 0.296761989593506
0.0804215297102928 -0.538640677928925 0.287584841251373
0.10148486495018 -0.540635347366333 0.286500841379166
-0.45277002453804 -0.408704251050949 0.609075367450714
-0.328465521335602 0.0109340259805322 0.627371966838837
0.0258225612342358 -0.538924694061279 0.278425753116608