-1.16255760192871 -0.263651430606842 0.141009747982025
-1.02033400535584 -0.383446604013443 0.0333470031619072
-1.02564680576324 -0.290754646062851 0.279893189668655
-0.462752789258957 -0.489030510187149 0.193015947937965
-0.859148383140564 -0.468644112348557 0.223654985427856
-0.372972995042801 -0.540589511394501 0.27520427107811
-0.548178017139435 -0.505829453468323 0.154518067836761
-0.532115936279297 -0.480774104595184 0.126868516206741
-0.598571300506592 -0.4604112803936 0.104081511497498
-0.6971834897995 -0.487304180860519 0.0557908564805985
-0.522784471511841 -0.473206073045731 0.170403629541397
-0.724261999130249 -0.377145528793335 1.0051304101944
-0.832842767238617 -0.212621167302132 1.18491411209106
-1.06176519393921 -0.398286551237106 0.320519626140594
-1.31392192840576 0.374645352363586 1.50524425506592
-1.19799828529358 0.313208848237991 1.38370704650879
-1.16040825843811 0.305830955505371 1.36824774742126
-1.08285045623779 0.334990680217743 1.37472784519196
-1.19448828697205 0.232842341065407 1.48680675029755
-1.21608901023865 0.408520996570587 1.4130607843399
-1.18311905860901 0.360915422439575 1.35482597351074
-1.10867071151733 0.363605558872223 1.39490175247192
-1.34947466850281 0.148069232702255 1.53317081928253
-1.25793719291687 0.281857043504715 1.45963263511658
-0.986278533935547 -0.464084208011627 0.205735385417938
-1.3579238653183 0.266240864992142 1.57886445522308
-1.20530080795288 0.252647519111633 1.56778383255005
-0.452860832214355 -0.47289577126503 0.336173564195633
-0.44111430644989 -0.458639115095139 0.353110402822495
-0.442623198032379 -0.405619829893112 0.437771856784821
-0.485189974308014 -0.477586358785629 0.282994866371155
-0.52513462305069 -0.459604024887085 0.271877020597458
-0.439996272325516 -0.489666551351547 0.341236352920532
-0.752792477607727 -0.471407651901245 0.365231484174728
-0.365594625473022 -0.563295781612396 0.295358687639236
-0.973935067653656 -0.457393199205399 0.252211481332779
-1.02516293525696 -0.230039730668068 0.226940453052521
-1.13839781284332 -0.123634159564972 0.178205862641335
-1.09258604049683 -0.141747161746025 0.162341669201851
-1.1554582118988 -0.455747842788696 0.264300435781479
-1.05480575561523 -0.398875385522842 0.26684433221817
-0.978217244148254 -0.47053673863411 0.257388859987259
-0.993261158466339 -0.508620858192444 0.239420175552368
-0.670281648635864 -0.499658763408661 0.0738272815942764
-0.622119069099426 -0.486686199903488 0.0959670841693878
-0.59142804145813 -0.482038736343384 0.0124699547886848
-1.09752559661865 -0.445960819721222 0.356340765953064
-0.776177942752838 -0.449787169694901 0.015479564666748
-0.769231796264648 -0.495479643344879 0.0181322731077671
-0.74183064699173 -0.477583646774292 -0.0300783775746822
-0.616938591003418 -0.465991050004959 0.0972031652927399
-0.443517059087753 -0.439952254295349 0.438137769699097
-1.2156810760498 0.267923086881638 1.43805181980133
-0.616726398468018 -0.513108313083649 0.300671339035034
-1.16620945930481 -0.291284769773483 0.172981649637222
-0.639687120914459 -0.494186669588089 0.29584327340126
-1.16723167896271 0.460947722196579 1.4016991853714
-1.00819563865662 -0.299380481243134 0.257672727108002
-1.12621116638184 0.401992529630661 1.34974205493927
-0.504628419876099 -0.494104772806168 0.281157940626144
-0.602275609970093 -0.487290382385254 0.289006859064102
-1.18926596641541 -0.0903201997280121 0.312244564294815
-0.82818341255188 -0.483673632144928 -0.0712989717721939
-0.885092914104462 -0.459924638271332 0.20086544752121
-0.660580575466156 -0.481172829866409 -0.0031435638666153
-1.07502496242523 -0.150647923350334 0.21635627746582
-0.575417280197144 -0.496710121631622 0.288541495800018
-1.15191459655762 -0.304502636194229 0.16400733590126
-1.10874176025391 -0.346600919961929 0.490425735712051
-0.516948401927948 -0.478469133377075 0.170974895358086
-0.86390346288681 -0.492494881153107 -0.0452601723372936
-1.18156659603119 -0.54164046049118 0.0319777578115463
-1.13629531860352 -0.137948706746101 0.133279919624329
-0.724854230880737 -0.49490562081337 -0.0215884037315845
-0.486505627632141 -0.351071119308472 0.318267017602921
-0.87203460931778 -0.481261253356934 0.133309423923492
-0.734413683414459 -0.483289033174515 -0.108995638787746
-0.538178145885468 -0.48529377579689 0.17284382879734
-0.462237179279327 -0.385302186012268 0.324146717786789
-0.998737633228302 -0.460346251726151 0.38462832570076
-0.504676282405853 -0.485074460506439 0.155637726187706
-1.01719069480896 -0.531779408454895 0.317076653242111
-0.391359776258469 -0.51146274805069 0.262028217315674
-0.454607367515564 -0.488473474979401 0.117951646447182
-0.457671254873276 -0.497445821762085 0.274488002061844
-0.836872041225433 -0.505146503448486 -0.0704663917422295
-0.487661778926849 -0.488897234201431 0.154493018984795
-0.903782427310944 -0.50517863035202 -0.126829519867897
-0.83012455701828 -0.466273754835129 0.245205134153366
-0.8410404920578 -0.505993127822876 -0.043066993355751
-1.05988705158234 -0.438952416181564 0.203769877552986
-0.735222458839417 -0.483753949403763 -0.000812627375125885
-0.574414074420929 -0.483504563570023 -0.00175150111317635
-0.555957734584808 -0.493481546640396 0.0999792963266373
-0.571344256401062 -0.486895531415939 0.099795401096344
-0.489029973745346 -0.497902989387512 0.249044507741928
-0.66208553314209 -0.478905767202377 0.240126490592957
-0.541227459907532 -0.485772281885147 0.0878039449453354
-0.451597034931183 -0.486055672168732 0.171931818127632
-0.386117219924927 -0.496133893728256 0.32424533367157
-0.464844942092896 -0.475763767957687 0.17717556655407
-1.1143958568573 -0.190868824720383 0.381219506263733
-0.787751257419586 -0.458756774663925 0.262535989284515
-0.522372841835022 -0.485238462686539 0.146932169795036
-0.807592153549194 -0.517709195613861 0.288707286119461
-0.897050082683563 -0.503831207752228 -0.0425676815211773
-0.624930262565613 -0.490680992603302 0.130605131387711
-0.414891213178635 -0.488373667001724 0.342090606689453
-0.379259616136551 -0.502319633960724 0.333785027265549
-0.386312544345856 -0.509695291519165 0.285702526569366
-0.466235935688019 -0.485419601202011 0.142440155148506
-0.373856693506241 -0.509260833263397 0.345868736505508
-1.10430121421814 -0.226660296320915 0.126393839716911
-1.0644965171814 -0.41516238451004 0.487033396959305
-0.689860224723816 -0.479324847459793 0.251946121454239
-0.511448681354523 -0.487932473421097 0.0775383859872818
-0.517038583755493 -0.484658241271973 0.117604121565819
-0.739060640335083 -0.496753334999084 0.0352896451950073
-1.25614237785339 -0.0615521259605885 0.181322664022446
-1.0469423532486 -0.230144664645195 0.334545582532883
-1.00482332706451 -0.403610467910767 0.245564669370651
-1.09554135799408 -0.285135388374329 0.250170648097992
-1.00144243240356 -0.248596727848053 0.232067108154297
-1.16679656505585 -0.305891215801239 0.199084907770157
-1.18075120449066 -0.0497880354523659 0.230629026889801
-1.13946509361267 -0.132487654685974 0.37183153629303
-1.16098892688751 -0.112211234867573 0.180157765746117
-0.948432624340057 -0.529504179954529 0.21426448225975
-0.529675185680389 -0.494690239429474 0.280154317617416
-0.640027642250061 -0.498266696929932 0.304110586643219
-0.670915722846985 -0.487455695867538 0.306382685899735
-0.862526834011078 -0.484400391578674 0.112377718091011
-0.857342302799225 -0.492422491312027 0.0891097337007523
-1.04265809059143 -0.373588889837265 0.0616536289453506
-0.746708750724792 -0.506126880645752 0.0318171605467796
-1.08555197715759 -0.419037610292435 0.227727651596069
-0.582943141460419 -0.340083569288254 0.560370087623596
-1.08931517601013 -0.186221227049828 0.134074524044991
-1.03155040740967 -0.375289738178253 0.22645777463913
-0.986814379692078 -0.380923986434937 0.211126118898392
-1.02929639816284 -0.362758338451386 0.240302443504334
-0.943536400794983 -0.46266233921051 0.264468640089035
-1.03768825531006 -0.347788274288177 0.263615787029266
-0.989919006824493 -0.189297944307327 0.176523223519325
-1.08667647838593 -0.393441677093506 0.203124597668648
-0.476867139339447 -0.32694473862648 0.303901553153992
-0.449911057949066 -0.492153853178024 0.395090371370316
-0.484897881746292 -0.348994225263596 0.378741085529327
-1.09496998786926 -0.463850557804108 0.214586764574051
-0.491599202156067 -0.483848601579666 0.291648268699646
-0.406937658786774 -0.475716143846512 0.375551551580429
-0.448490798473358 -0.482874035835266 0.32417893409729
-0.448402255773544 -0.442378699779511 0.323316842317581
-0.357770025730133 -0.54896605014801 0.329554349184036
-0.473593533039093 -0.473205149173737 0.309446662664413
-0.481359004974365 -0.515686511993408 0.323057115077972
-0.538714826107025 -0.342106074094772 0.370773583650589
-0.362679839134216 -0.550718724727631 0.306106865406036
-0.720516681671143 -0.483028143644333 0.3289754986763
-1.07966279983521 -0.491272836923599 0.194952979683876
-0.73372745513916 -0.495571732521057 0.311345398426056
-1.180997133255 -0.0686016455292702 0.193313345313072
-1.0746203660965 -0.45549675822258 0.176153421401978
-1.25485897064209 -0.0701220780611038 0.114208087325096
-1.24672412872314 -0.0769247189164162 0.111555203795433
-1.12572836875916 -0.318333923816681 0.109434008598328
-1.07941246032715 -0.153406485915184 0.145661741495132
-1.04076564311981 -0.287539750337601 0.128187835216522
-1.10591864585876 -0.384339243173599 0.066494345664978
-0.922774195671082 -0.473520219326019 -0.0880850553512573
-0.764587044715881 -0.449809968471527 0.00834415853023529
-0.930509269237518 -0.496509522199631 -0.0817131251096725
-0.958105623722076 -0.503883898258209 -0.103540733456612
-1.11962258815765 -0.332013100385666 0.23052504658699
-0.67429518699646 -0.47335222363472 0.254326611757278
-0.453049212694168 -0.410482227802277 0.304681926965714
-1.10522961616516 -0.327156335115433 0.0830569565296173
-1.08582758903503 -0.372292667627335 0.183705136179924
-0.740378677845001 -0.465948522090912 0.0240079686045647
-1.06832993030548 -0.303707450628281 0.222715646028519
-1.02582740783691 -0.17883874475956 0.141084179282188
-1.0296106338501 -0.397214621305466 0.245433777570724
-0.673512697219849 -0.494495660066605 0.0738692730665207
-1.05367040634155 -0.208928197622299 0.149123698472977
-0.995527684688568 -0.232366800308228 0.21315211057663
-0.516439378261566 -0.478018075227737 0.0619805976748466
-1.12489414215088 -0.261868476867676 0.17517201602459
-0.412444114685059 -0.497741758823395 0.195273533463478
-1.33633100986481 -0.0675439015030861 0.0962062776088715
-1.00111997127533 -0.273415565490723 0.241853564977646
-1.10782814025879 -0.274782240390778 0.192809492349625
-0.445220291614532 -0.501377284526825 0.33331772685051
-1.03973150253296 -0.357523828744888 0.26062086224556
-0.945399224758148 -0.514858603477478 0.214634984731674
-0.828733623027802 -0.499249577522278 0.247027426958084
-0.745690822601318 -0.466291546821594 0.28763821721077
-0.766576886177063 -0.510007500648499 0.312043368816376
-1.17729842662811 -0.101030342280865 0.306024193763733
-1.02061414718628 -0.512743234634399 0.222851395606995
-0.870168805122375 -0.480289876461029 0.204332068562508
-0.703884720802307 -0.472370475530624 0.0564073473215103
-0.801625728607178 -0.46833872795105 0.257851868867874
-0.424070984125137 -0.498449981212616 0.210329353809357
